# .PCD v0.7 - Point Cloud Data file format
VERSION 0.7
FIELDS x y z
SIZE 4 4 4
TYPE F F F
COUNT 1 1 1
WIDTH 1562
HEIGHT 1
VIEWPOINT 0 0 0 1 0 0 0
POINTS 1562
DATA ascii
-0.62719202 2.461056 -1.303579
-7.9671659 10.454412 -1.421108
-0.82801402 2.679755 -1.349268
-9.258997 11.861237 -1.3395
-0.84144002 2.694376 -1.2337461
-13.093643 16.037231 -1.609674
-1.047392 2.9186611 -1.263108
-16.667686 19.929424 -1.574965
-1.277982 3.1697769 -1.294031
-26.321812 30.442928 -1.928098
-1.645535 3.570049 -1.3997459
-41.956341 47.469193 -2.0307181
-2.1528029 4.1224718 -1.564604
-2.485826 4.4851398 -1.5898221
-2.614255 4.625001 -1.483066
-2.616111 4.6270218 -1.306123
-3.267282 5.3361578 -1.4300621
-3.622591 5.7230959 -1.3837121
-4.1204429 6.265265 -1.368914
-4.8828239 7.09551 -1.411189
-5.9892621 8.3004408 -1.5107419
-6.3003688 8.6392412 -1.31218
-0.62449002 2.4751921 -1.3086801
-7.731348 10.260923 -1.3714989
-0.82826799 2.6984351 -1.357105
-10.119837 12.87757 -1.526549
-0.82034099 2.6897509 -1.2243561
-12.772944 15.784113 -1.562517
-0.958009 2.840569 -1.203859
-16.387114 19.743521 -1.5444961
-1.375841 3.2983141 -1.370185
-24.156086 28.254616 -1.7129689
-1.447742 3.3770831 -1.276912
-42.083492 47.894512 -2.0493519
-1.738742 3.6958809 -1.3163919
-2.2866819 4.2961621 -1.482882
-1.937934 3.9141009 -1.1259969
-2.955013 5.0283341 -1.4834681
-3.2219219 5.3207402 -1.4169559
-3.367209 5.4799061 -1.282829
-4.3158641 6.5191779 -1.452487
-4.895978 7.154707 -1.4236391
-6.1111269 8.4859324 -1.557314
-6.3357892 8.7320547 -1.329584
-0.58424002 2.4490199 -1.281135
-7.3185949 9.8733721 -1.278766
-0.77869099 2.663394 -1.323796
-9.4925919 12.270115 -1.404076
-0.88536501 2.780998 -1.28351
-13.314596 16.483719 -1.665659
-0.974231 2.878968 -1.223609
-16.560551 20.062252 -1.5773799
-1.259758 3.1937499 -1.296598
-24.411772 28.717903 -1.748963
-1.324154 3.264745 -1.202886
-1.751894 3.736311 -1.33258
-2.3695371 4.4172368 -1.539626
-2.608727 4.680934 -1.496747
-3.005404 5.1182542 -1.5174
-3.3078239 5.4516602 -1.465211
-3.8472879 6.0463972 -1.495621
-4.2901969 6.5346861 -1.450968
-5.2291589 7.5698528 -1.549525
-5.8203049 8.2215681 -1.474149
-6.268765 8.7159786 -1.318845
-0.554546 2.434124 -1.262771
-7.3272352 9.9480419 -1.288818
-0.753878 2.655272 -1.31106
-9.3612375 12.204652 -1.384871
-0.97112399 2.8962941 -1.3595639
-13.407777 16.694059 -1.6912121
-1.091949 3.0303421 -1.319663
-16.905481 20.574566 -1.634415
-1.197619 3.147578 -1.2606601
-24.158533 28.621416 -1.732082
-1.252684 3.2086689 -1.163026
-41.922306 48.329319 -2.05932
-1.8031321 3.81936 -1.372664
-2.0575211 4.1015902 -1.366486
-2.7135379 4.8294039 -1.562415
-2.9017799 5.0382481 -1.473864
-3.150084 5.3137279 -1.400275
-3.854037 6.0947242 -1.507198
-4.223042 6.5041132 -1.4332401
-4.5747542 6.8943181 -1.326804
-5.666132 8.1051416 -1.433815
-6.2664042 8.7711096 -1.326251
-0.57087898 2.4703259 -1.285215
-7.4474182 10.147821 -1.32643
-0.77334797 2.696378 -1.335552
-9.9783077 12.973501 -1.523209
-0.95015001 2.893774 -1.351114
-13.379176 16.770493 -1.695626
-1.066847 3.0240631 -1.30889
-16.147295 19.861032 -1.537622
-1.225052 3.200696 -1.288041
-25.289196 30.067751 -1.860155
-1.271806 3.2528951 -1.183362
-41.67836 48.365871 -2.052985
-1.829258 3.875277 -1.397331
-2.0184989 4.0865598 -1.3519371
-2.6519461 4.793788 -1.5377899
-2.7190671 4.8687282 -1.389993
-3.2263689 5.4351192 -1.44436
-3.560394 5.8080502 -1.389776
-3.997364 6.295917 -1.353213
-4.8543358 7.2527061 -1.434245
-5.6706991 8.1641569 -1.443794
-6.2703328 8.8336344 -1.3355089
-0.67049903 2.6004629 -1.382133
-7.1846189 9.9194641 -1.2696871
-0.85982299 2.81318 -1.4168659
-9.6702528 12.712221 -1.466983
-0.74489802 2.6840551 -1.195249
-12.025611 15.358605 -1.467041
-1.0632041 3.0416911 -1.3142771
-15.740656 19.532679 -1.489504
-1.216128 3.213511 -1.289753
-23.872208 28.668959 -1.7212
-1.44981 3.4760661 -1.310264
-41.389462 48.350628 -2.0434821
-1.570418 3.6115761 -1.243162
-1.9176821 4.0017481 -1.301013
-2.514405 4.6722012 -1.471437
-2.832242 5.0293102 -1.455937
-3.039192 5.2618308 -1.365126
-3.4590609 5.7335782 -1.354495
-3.6997371 6.0039921 -1.244314
-4.214385 6.5822301 -1.214753
-5.548811 8.0815372 -1.413439
-6.4007001 9.0386839 -1.380686
-0.479857 2.4039531 -1.219923
-6.8161411 9.5683355 -1.186357
-0.789648 2.754231 -1.365922
-9.7680845 12.906075 -1.496487
-0.94226599 2.926795 -1.361442
-11.55623 14.927915 -1.3929369
-0.99672902 2.9883759 -1.272085
-15.788767 19.71361 -1.50511
-1.168833 3.1829729 -1.264083
-25.004705 30.133991 -1.850389
-1.2572629 3.2829599 -1.189057
-1.666611 3.745806 -1.311767
-1.813737 3.9121599 -1.247907
-2.458606 4.6413078 -1.449548
-2.7749939 4.9990449 -1.43545
-3.2136359 5.4950142 -1.45568
-3.6868539 6.0300779 -1.461442
-3.989783 6.3725972 -1.366888
-4.9943538 7.5084572 -1.501568
-5.5726738 8.1623592 -1.429656
-6.2460089 8.9236927 -1.345137
-0.56188202 2.5151031 -1.301538
-7.2980809 10.180061 -1.314109
-0.75900602 2.7394049 -1.3482881
-9.5902491 12.788263 -1.467539
-0.95744503 2.965205 -1.382099
-12.03647 15.571759 -1.486554
-1.069834 3.0930901 -1.335822
-16.361731 20.49337 -1.595029
-1.0967 3.1236601 -1.220444
-23.315006 28.405331 -1.681578
-1.441067 3.515507 -1.320839
-41.766766 49.401138 -2.091835
-1.663313 3.7683949 -1.317934
-1.854282 3.9856939 -1.279916
-2.5668099 4.7964621 -1.517952
-2.8555689 5.1250339 -1.485388
-3.1837461 5.4984589 -1.450318
-3.548595 5.9136119 -1.4101731
-4.2290292 6.68786 -1.470215
-4.787045 7.322814 -1.43609
-5.7071619 8.3697929 -1.481634
-6.2192702 8.952508 -1.3458771
-0.60075498 2.5771029 -1.344386
-7.370522 10.326504 -1.340048
-0.64987898 2.6333351 -1.263056
-9.6435833 12.928493 -1.4873019
-0.93815303 2.963325 -1.3745871
-11.970725 15.592388 -1.483302
-1.085325 3.131793 -1.355571
-15.81492 19.992867 -1.526289
-1.233705 3.301645 -1.326546
-22.363117 27.488634 -1.5895
-1.546034 3.6591699 -1.3997459
-42.598026 50.651676 -2.1612451
-1.640003 3.766737 -1.3109961
-1.837577 3.9929011 -1.277734
-2.501914 4.7533731 -1.490591
-2.7631149 5.052372 -1.446334
-3.1046751 5.443357 -1.421126
-3.67909 6.100894 -1.475224
-4.162148 6.6538539 -1.45198
-3.8460889 6.2920599 -1.105467
-5.516366 8.2040386 -1.428409
-6.099679 8.8717604 -1.319586
-0.51470798 2.496922 -1.275013
-7.1543632 10.145749 -1.29433
-0.502033 2.482321 -1.144515
-9.80159 13.195333 -1.530167
-0.86622 2.901861 -1.324823
-11.88265 15.592697 -1.476565
-0.97111499 3.0227001 -1.2765729
-16.030119 20.370546 -1.566047
-1.18888 3.2735629 -1.302588
-22.215221 27.495731 -1.583082
-1.243417 3.3363891 -1.202886
-42.550053 50.921288 -2.1692569
-1.732144 3.899399 -1.37806
-1.711401 3.8755031 -1.210806
-2.3920701 4.659627 -1.438604
-2.7099421 5.0258141 -1.427767
-3.238981 5.635262 -1.493808
-3.6636789 6.1245108 -1.477429
-4.0676618 6.5898962 -1.42311
-5.098227 7.7770972 -1.5656641
-5.662425 8.4270496 -1.484545
-6.1091619 8.9416866 -1.330695
-0.429822 2.417958 -1.206661
-7.2250199 10.29861 -1.320918
-0.79419798 2.840538 -1.40413
-9.7758417 13.256895 -1.5343421
-0.968265 3.0424111 -1.41684
-11.992989 15.828205 -1.5058351
-0.82903397 2.880939 -1.17603
-16.703671 21.291363 -1.67213
-1.15307 3.256737 -1.285475
-24.581089 30.427107 -1.846343
-1.276347 3.3997049 -1.233798
-42.344391 51.027885 -2.1667421
-1.646763 3.8292911 -1.33258
-1.585276 3.757982 -1.143878
-2.4194491 4.7254052 -1.4632289
-2.8020451 5.169116 -1.484748
-2.8885469 5.2694349 -1.335934
-3.665864 6.1709199 -1.487903
-3.8511369 6.385788 -1.345615
-4.8194408 7.5087662 -1.474362
-5.6228909 8.4405594 -1.481218
-6.075572 8.9655504 -1.329954
-0.45951399 2.469563 -1.241347
-6.8002329 9.8674049 -1.2217
-0.69038999 2.7389309 -1.322817
-9.2184315 12.688763 -1.422725
-0.76382399 2.8246081 -1.258158
-11.851703 15.761053 -1.48911
-0.866974 2.9449539 -1.212837
-16.074213 20.687538 -1.591128
-1.209263 3.34431 -1.334247
-24.1805 30.145304 -1.813139
-1.4160661 3.5855911 -1.337109
-42.222816 51.195625 -2.168977
-1.6486109 3.8569059 -1.34183
-2.1633611 4.4574742 -1.49816
-2.37854 4.708528 -1.448864
-2.699187 5.082633 -1.439932
-2.977314 5.4071298 -1.386573
-3.54125 6.0650849 -1.441596
-4.1394639 6.7630329 -1.469708
-4.9289269 7.6841159 -1.5227799
-5.510057 8.3621311 -1.452942
-6.286931 9.2685251 -1.399201
-0.43821701 2.4628699 -1.230125
-6.711627 9.8288946 -1.207433
-0.42953399 2.4526761 -1.105328
-9.2555847 12.815922 -1.439705
-0.81894302 2.9099059 -1.3116781
-11.834345 15.843813 -1.495149
-0.97812402 3.0968111 -1.3070951
-16.103415 20.856409 -1.604876
-1.246711 3.4121771 -1.370185
-21.348412 27.014904 -1.518069
-1.403527 3.5963039 -1.337109
-42.151169 51.440788 -2.175499
-1.629236 3.8613241 -1.337976
-1.6612771 3.898946 -1.204986
-2.544034 4.9354491 -1.550786
-2.7949619 5.2300811 -1.4988329
-3.0296049 5.50559 -1.42053
-3.558306 6.1263719 -1.4581341
-4.1909428 6.869194 -1.4995919
-4.9325161 7.739923 -1.533386
-5.4216061 8.3141956 -1.432983
-6.1227059 9.1374025 -1.360319
-0.44365799 2.487586 -1.2433881
-6.977777 10.20873 -1.283305
-0.60641199 2.6799071 -1.266975
-9.2779846 12.926806 -1.453622
-0.79940599 2.9079621 -1.304167
-11.807631 15.916002 -1.499563
-0.72929299 2.8251121 -1.1221679
-15.920774 20.776365 -1.588155
-1.175164 3.3519821 -1.326546
-24.579636 31.008244 -1.877176
-1.4086601 3.627897 -1.349311
-42.161037 51.783581 -2.187984
-1.498999 3.734647 -1.2624331
-1.804207 4.0953012 -1.299558
-2.3791349 4.774673 -1.467333
-2.8690529 5.3535919 -1.546851
-3.144228 5.6787581 -1.484871
-3.262068 5.8180051 -1.3357511
-4.0255928 6.7202358 -1.4418499
-5.1382322 8.0350037 -1.6182311
-5.5142512 8.479332 -1.472486
-6.1396828 9.2183838 -1.37402
-0.45228699 2.5163159 -1.259711
-7.2060509 10.548045 -1.350099
-0.579889 2.6680629 -1.25228
-9.2730217 13.006135 -1.461694
-0.79468101 2.9234979 -1.308861
-12.08742 16.353083 -1.559729
-1.000953 3.168802 -1.342106
-15.851589 20.829517 -1.5877841
-1.178484 3.379925 -1.33767
-21.8832 28.002447 -1.594941
-1.3489521 3.5826499 -1.316772
-42.083008 52.024517 -2.194226
-1.569132 3.8444929 -1.3163919
-44.309216 54.671974 -0.67057401
-2.1042049 4.480814 -1.490157
-2.417285 4.8531361 -1.4981149
-2.7631509 5.2644482 -1.500754
-3.0882421 5.651053 -1.4669991
-3.7696021 6.4613419 -1.570594
-4.16258 6.9286799 -1.506683
-4.7121458 7.5822368 -1.4711339
-5.5643768 8.5957298 -1.4982671
-6.1473689 9.2890387 -1.385129
-0.437599 2.5174041 -1.2546099
-7.0374808 10.416377 -1.31573
-0.43608099 2.515588 -1.1347179
-8.7063894 12.413786 -1.346737
-0.76158202 2.905158 -1.290082
-12.006703 16.363718 -1.554619
-1.020668 3.215241 -1.366343
-15.727354 20.816725 -1.579423
-1.1689121 3.3926661 -1.339381
-24.48538 31.298639 -1.888476
-1.3551691 3.6155839 -1.329787
-41.934761 52.182674 -2.195437
-1.534482 3.830193 -1.3025171
-43.982143 54.633053 -0.665003
-2.061378 4.4608002 -1.473425
-2.3561749 4.8136239 -1.472806
-2.7040269 5.2299461 -1.478986
-3.2136581 5.83989 -1.537297
-3.48669 6.1666641 -1.453724
-4.148211 6.958396 -1.510228
-4.620903 7.5241308 -1.446695
-5.58249 8.6749926 -1.513653
-6.1294951 9.3296671 -1.388833
-0.364088 2.4465449 -1.194419
-7.0810041 10.534236 -1.335184
-0.53993499 2.6582789 -1.2336659
-8.9593601 12.795922 -1.4107569
-0.78786701 2.956809 -1.320129
-11.911217 16.350187 -1.5462559
-1.047609 3.2695589 -1.395968
-15.540916 20.720629 -1.561403
-1.159956 3.4048331 -1.341092
-22.277781 28.832338 -1.657164
-1.400439 3.6943929 -1.369648
-41.774731 52.308178 -2.195158
-1.396933 3.690172 -1.220807
-43.722851 54.65387 -0.66152197
-2.0386069 4.4627962 -1.468333
-2.3935201 4.8901401 -1.502903
-2.671566 5.2249289 -1.470663
-3.0304489 5.657052 -1.456871
-3.739867 6.5112462 -1.576107
-4.186924 7.0495381 -1.5350471
-4.476757 7.398519 -1.401967
-5.5067878 8.6387577 -1.497436
-6.0742221 9.3219919 -1.381056
-0.25987601 2.338527 -1.1056629
-6.4813499 9.8777342 -1.189276
-0.59135199 2.7402101 -1.2875479
-9.4460278 13.470343 -1.527384
-0.70986903 2.8838301 -1.263792
-11.901509 16.445904 -1.554154
-0.83017302 3.029614 -1.233484
-15.572067 20.893902 -1.575708
-1.112318 3.37152 -1.314567
-22.496933 29.28548 -1.691344
-1.337554 3.6444609 -1.334668
-41.615273 52.453159 -2.1956229
-1.6225131 3.9897749 -1.3772891
-43.853813 55.165833 -0.672616
-1.897617 4.3231478 -1.39122
-2.2213731 4.715476 -1.413978
-2.803411 5.420794 -1.550052
-3.086735 5.7641249 -1.493808
-3.4171059 6.1644702 -1.440493
-4.1339331 7.033124 -1.522891
-4.308538 7.2447109 -1.348477
-5.5630221 8.7649012 -1.525712
-6.0311279 9.3321524 -1.377353
-0.29707301 2.4014831 -1.14851
-6.9895978 10.563609 -1.329348
-0.46318001 2.6040649 -1.182723
-8.7456303 12.705244 -1.381809
-0.63571799 2.814491 -1.210272
-10.829562 15.246782 -1.366222
-0.92023897 3.161489 -1.313379
-15.883877 21.410965 -1.631443
-0.93654901 3.181381 -1.192207
-22.798246 29.843649 -1.734872
-1.424461 3.776432 -1.404627
-41.707439 52.905075 -2.2146289
-1.529135 3.9040921 -1.3248709
-43.487598 55.076138 -0.66560698
-1.938279 4.403079 -1.4254121
-2.2529471 4.7868438 -1.44134
-2.786304 5.4373188 -1.550692
-3.132715 5.8597989 -1.525978
-3.417181 6.2067289 -1.449865
-4.028358 6.9521151 -1.488955
-4.3375511 7.3292022 -1.368305
-5.4895401 8.7341547 -1.5107419
-5.9668679 9.3162975 -1.367355
-0.183485 2.2810349 -1.050573
-7.0254779 10.682112 -1.3481539
-0.46421599 2.625736 -1.1925189
-8.9847698 13.087867 -1.444715
-0.83134598 3.076524 -1.3839771
-10.825275 15.347768 -1.3750499
-0.914056 3.178081 -1.317868
-15.728458 21.368237 -1.619181
-0.957762 3.2317469 -1.217021
-23.703222 31.16021 -1.846204
-1.354058 3.7183461 -1.364767
-41.657864 53.206169 -2.2240391
-1.557964 3.9687159 -1.353393
-1.81292 4.2817678 -1.357756
-2.361526 4.9553862 -1.5138479
-2.7070961 5.3797002 -1.518681
-3.092639 5.853097 -1.516446
-3.4049549 6.2365808 -1.454275
-4.104135 7.0950818 -1.530488
-4.7346458 7.8692679 -1.52693
-5.4913301 8.798378 -1.521553
-5.9557052 9.3685694 -1.37365
-0.26860201 2.4024899 -1.138309
-6.698266 10.3453 -1.2713079
-0.31151101 2.455498 -1.064182
-8.8911161 13.054211 -1.4327461
-0.88990402 3.1700079 -1.442191
-11.320927 16.055847 -1.475868
-0.93716103 3.2283859 -1.344799
-15.860497 21.663752 -1.648349
-1.101658 3.431596 -1.333392
-22.175903 29.465414 -1.68688
-1.34872 3.7368009 -1.369648
-41.751259 53.647594 -2.2427659
-1.3708121 3.7640929 -1.237766
-1.817765 4.3162308 -1.369396
-2.254565 4.8558259 -1.461177
-2.7280729 5.4407692 -1.539168
-3.063251 5.854826 -1.511084
-3.6670811 6.6007609 -1.5827219
-4.0818672 7.113162 -1.530488
-4.2202921 7.284163 -1.342482
-5.3286071 8.6533079 -1.475813
-5.8957691 9.3539438 -1.364392
-0.308303 2.469923 -1.184217
-6.550673 10.23109 -1.241478
-0.49376899 2.7005141 -1.235625
-9.1107073 13.413992 -1.491477
-0.84768599 3.1405411 -1.4159009
-11.102336 15.890192 -1.4447401
-0.93918902 3.254307 -1.355571
-15.899679 21.85475 -1.664513
-1.1213289 3.480762 -1.35735
-24.387751 32.408005 -1.944142
-1.414721 3.8455369 -1.425777
-41.658886 53.881287 -2.2485421
-1.565909 4.0335102 -1.376518
-1.909184 4.4603052 -1.435596
-2.2757249 4.916028 -1.483066
-2.759578 5.5176039 -1.566058
-3.0100729 5.8290458 -1.494403
-3.686028 6.6694641 -1.601465
-3.976989 7.0312181 -1.4965529
-4.5181251 7.7040129 -1.464218
-4.7790432 8.0284138 -1.299088
-5.846611 9.3557272 -1.358838
-0.34223199 2.530915 -1.225024
-6.520926 10.262528 -1.242451
-0.43829799 2.651125 -1.194479
-8.5170412 12.760336 -1.367613
-0.765993 3.061182 -1.355808
-11.217268 16.139221 -1.475868
-0.90091598 3.230016 -1.334026
-15.424393 21.403742 -1.603947
-1.0572079 3.4255891 -1.3179899
-23.895935 32.004471 -1.900614
-1.33863 3.7777419 -1.381036
-1.6199369 4.1297512 -1.421998
-44.017647 57.18346 -0.71137798
-2.004384 4.6108232 -1.504707
-2.056025 4.6754432 -1.364727
-2.7125731 5.497004 -1.550692
-2.9880941 5.841773 -1.493212
-3.394942 6.3508759 -1.47798
-4.0381641 7.1557608 -1.5320081
-4.7331891 8.0254707 -1.555519
-5.231276 8.6487436 -1.46209
-5.8600931 9.4356041 -1.372169
-0.37525299 2.590385 -1.264812
-6.241302 9.9755974 -1.176955
-0.402123 2.624213 -1.169987
-8.6528702 13.011701 -1.407138
-0.65686202 2.9449229 -1.271304
-10.337871 15.133075 -1.319762
-0.937931 3.2987831 -1.372627
-15.56275 21.711069 -1.634415
-0.998622 3.375191 -1.282052
-22.612137 30.586073 -1.7671
-1.376222 3.85058 -1.416829
-41.47187 54.330009 -2.259443
-1.631734 4.1722631 -1.438956
-43.921219 57.413681 -0.71416402
-1.675485 4.227345 -1.30756
-2.07251 4.7271891 -1.383196
-2.5618889 5.3433051 -1.478346
-2.828244 5.6786399 -1.422318
-3.288795 6.258462 -1.438288
-3.8737199 6.9948692 -1.47224
-4.6367469 7.9555011 -1.528313
-5.3272891 8.8248758 -1.504089
-5.8883309 9.5312147 -1.389573
-0.332295 2.5563769 -1.233186
-6.4122081 10.263172 -1.231427
-0.354283 2.584249 -1.135698
-8.4991636 12.908562 -1.382365
-0.53638101 2.815074 -1.1774091
-11.287803 16.443394 -1.508855
-0.86255503 3.2285261 -1.321458
-15.483168 21.761368 -1.633487
-0.99504399 3.396467 -1.288897
-22.661243 30.860174 -1.78426
-1.147097 3.589206 -1.262269
-1.545684 4.09445 -1.3911639
-43.299534 57.020924 -0.69805598
-1.922052 4.571527 -1.472698
-2.291784 5.0401931 -1.5220571
-2.3374469 5.098074 -1.366305
-2.512435 5.3198872 -1.27338
-3.3571839 6.390676 -1.480185
-4.1020198 7.3348169 -1.579113
-4.5342722 7.8827329 -1.499724
-5.0143409 8.4912605 -1.407202
-5.6484122 9.2949982 -1.326622
-0.25720099 2.479748 -1.169934
-6.5880752 10.556706 -1.287196
-0.29434201 2.527132 -1.089653
-8.2899189 12.727927 -1.344232
-0.80297202 3.176044 -1.4159009
-11.08042 16.288063 -1.4795851
-0.84783399 3.2332799 -1.318765
-15.644415 22.110828 -1.668414
-0.97975802 3.4015889 -1.28633
-21.671829 29.800631 -1.683253
-1.143566 3.6105771 -1.268777
-41.996296 55.730682 -2.325871
-1.456409 4.0097032 -1.340288
-1.9144599 4.5940871 -1.47779
-2.1204741 4.8569212 -1.431079
-2.4650941 5.2965879 -1.445694
-2.5168231 5.3625841 -1.284699
-3.300245 6.3620782 -1.463647
-4.015626 7.2747641 -1.552775
-4.5886569 8.0058403 -1.530619
-5.0612001 8.6087122 -1.432983
-5.7925138 9.5417271 -1.379945
-0.26133201 2.502717 -1.1821769
-6.3978529 10.379749 -1.2450449
-0.44745201 2.741627 -1.2375849
-8.3482933 12.883396 -1.3665
-0.69033402 3.0533979 -1.3276401
-10.681694 15.878624 -1.413147
-0.85131902 3.2600429 -1.330436
-15.375612 21.903887 -1.63776
-0.95179999 3.3890231 -1.273495
-22.330046 30.830816 -1.768355
-1.246183 3.7669029 -1.351751
-42.159824 56.284946 -2.3509331
-1.589615 4.2077441 -1.4397269
-43.271095 57.711407 -0.71026403
-1.915653 4.626256 -1.487975
-2.2769511 5.0900302 -1.5330009
-2.5948911 5.498147 -1.526363
-2.7390611 5.6832089 -1.406232
-3.3380499 6.4520898 -1.490659
-3.8418159 7.0987391 -1.488449
-4.5852132 8.0529881 -1.538919
-5.1919332 8.8317928 -1.487456
-5.7521091 9.5508518 -1.3766119
-0.221668 2.470356 -1.152591
-6.285429 10.304633 -1.223969
-0.41515899 2.7203441 -1.217011
-8.243475 12.834394 -1.352026
-0.51842302 2.8537591 -1.1877379
-11.007415 16.405357 -1.4851609
-0.83433801 3.261915 -1.325947
-15.00684 21.572544 -1.592243
-0.94541502 3.4054251 -1.277773
-22.697084 31.508211 -1.82151
-1.2476161 3.7958641 -1.362326
-1.396649 3.9884119 -1.317934
-42.815407 57.500736 -0.69991201
-1.7687089 4.4691072 -1.404315
-2.3551619 5.2267938 -1.589777
-2.586777 5.5260372 -1.532125
-2.815753 5.8218689 -1.455084
-3.4541769 6.6467028 -1.555158
-3.723491 6.9946508 -1.447928
-4.483582 7.9766769 -1.509868
-4.913836 8.5325565 -1.400964
-5.8868232 9.7896404 -1.427714
-0.233611 2.504596 -1.172995
-6.3684521 10.482365 -1.255421
-0.35326099 2.660188 -1.1690069
-8.2139168 12.882212 -1.354809
-0.51464701 2.870055 -1.1933711
-11.010253 16.518578 -1.495846
-0.65504003 3.052623 -1.187701
-14.673086 21.281738 -1.551742
-0.91691399 3.3931651 -1.264938
-23.05036 32.175571 -1.873548
-1.306812 3.9001901 -1.415202
-1.406469 4.0297842 -1.334121
-42.806343 57.866322 -0.70650399
-1.714779 4.4307122 -1.379581
-2.2102931 5.0750799 -1.5138479
-2.4607179 5.400733 -1.472584
-2.7670851 5.7991328 -1.44019
-3.3077829 6.5022588 -1.4967231
-3.6731019 6.9773211 -1.4362791
-4.4631639 8.0047207 -1.512174
-4.9882951 8.687602 -1.436725
-5.8871179 9.8564358 -1.437713
-0.21821 2.503396 -1.1668741
-6.3186498 10.488213 -1.251206
-0.35845599 2.686964 -1.182723
-8.3873692 13.195942 -1.404633
-0.711272 3.148761 -1.3745871
-11.018546 16.639868 -1.507694
-0.597525 2.9998789 -1.149099
-14.112852 20.68998 -1.476128
-0.93022603 3.435348 -1.284619
-22.717772 31.952887 -1.847041
-1.269994 3.8800681 -1.398119
-1.297304 3.915813 -1.2686
-42.683777 58.086227 -0.70882499
-1.515229 4.2010541 -1.2610019
-2.2284441 5.1345749 -1.535053
-2.2860329 5.2099519 -1.385512
-2.659497 5.6987772 -1.394913
-3.5276771 6.8351302 -1.610837
-3.6240571 6.9612818 -1.425136
-4.4367299 8.0249825 -1.512174
-4.823132 8.5307417 -1.388906
-5.848896 9.8733549 -1.435861
-0.242874 2.553807 -1.19952
-6.2194691 10.424829 -1.233048
-0.226971 2.5328629 -1.06908
-8.1301937 12.941205 -1.354252
-0.51491398 2.912076 -1.211211
-11.007567 16.730631 -1.51536
-0.586344 3.0061491 -1.1482019
-13.51431 20.031946 -1.393454
-0.90243399 3.422431 -1.2717839
-20.68759 29.478971 -1.623401
-1.088227 3.6671159 -1.273658
-42.198231 57.80793 -2.408323
-1.466396 4.165154 -1.394248
-42.66843 58.42717 -0.71490598
-1.527473 4.2455912 -1.277734
-2.190408 5.118659 -1.5220571
-2.421762 5.423347 -1.470663
-2.7429819 5.846385 -1.4473391
-3.258544 6.5253668 -1.493416
-3.646651 7.0364938 -1.444383
-4.3375568 7.9463992 -1.483124
-5.0888128 8.9357843 -1.491614
-5.7791519 9.844943 -1.423641
-0.387393 2.765877 -1.351527
-6.1728349 10.437843 -1.23013
-0.46184301 2.864603 -1.297345
-8.1037884 12.998443 -1.358428
-0.47521001 2.882329 -1.18586
-10.593078 16.299442 -1.445901
-0.59655702 3.0432451 -1.1661561
-14.108311 20.960928 -1.496006
-0.91151202 3.460901 -1.288897
-23.083393 32.862614 -1.91317
-1.28374 3.954505 -1.428218
-41.96769 57.90472 -2.4054351
-1.427905 4.145679 -1.37806
-42.386444 58.460022 -0.711564
-1.666844 4.462533 -1.378126
-2.2445049 5.228559 -1.565835
-2.4697371 5.5272341 -1.508437
-2.8153541 5.9855499 -1.495595
-3.3582511 6.7054749 -1.551851
-3.549736 6.9594002 -1.41298
-4.232512 7.8648152 -1.45269
-5.1002212 9.0154696 -1.506584
-5.730938 9.8518515 -1.419198
-0.29236099 2.6586919 -1.266852
-6.2601871 10.621548 -1.2628779
-0.383131 2.7798059 -1.232686
-8.6792574 13.849308 -1.502611
-0.38815099 2.786504 -1.117317
-10.450553 16.212744 -1.4277821
-0.54988801 3.0023091 -1.1356339
-14.69096 21.870707 -1.596516
-0.87077302 3.430465 -1.265794
-20.468311 29.579414 -1.619774
-1.246699 3.9320631 -1.410321
-1.365705 4.0908518 -1.344142
-1.720556 4.5643282 -1.422502
-2.14889 5.1358538 -1.517952
-2.358953 5.416141 -1.455937
-2.683033 5.8485599 -1.436615
-3.3186979 6.6967268 -1.543031
-3.4037189 6.8101702 -1.358784
-4.171782 7.8349938 -1.438395
-5.058176 9.0177078 -1.5015939
-5.675735 9.8417158 -1.4114209
-0.19028001 2.5416989 -1.175035
-5.9096498 10.223213 -1.175982
-0.380418 2.7970669 -1.239544
-8.9419594 14.295816 -1.574981
-0.44773099 2.8874741 -1.179287
-10.591667 16.51149 -1.465647
-0.457001 2.899924 -1.066511
-15.882696 23.61771 -1.793632
-0.97531801 3.59606 -1.358206
-21.982534 31.810221 -1.808116
-1.145781 3.8250029 -1.3452441
-41.93523 58.608086 -2.4307771
-1.495958 4.2953162 -1.445123
-1.76057 4.6507082 -1.458876
-1.800375 4.7041688 -1.31616
-2.361026 5.4571619 -1.4674619
-2.5596211 5.7238889 -1.3824019
-3.02771 6.3525658 -1.414032
-3.6063571 7.1297302 -1.457552
-4.0528989 7.7294669 -1.401505
-5.044909 9.0618057 -1.5074151
-5.7303782 9.9824381 -1.4388241
-0.237293 2.62463 -1.231145
-6.139132 10.603418 -1.248612
-0.38799 2.8283601 -1.256199
-7.9900188 13.10566 -1.3609329
-0.39433599 2.8369391 -1.14079
-10.944852 17.100344 -1.545559
-0.69638598 3.245286 -1.2774709
-15.796499 23.659361 -1.79196
-0.901474 3.522547 -1.309433
-21.502745 31.373722 -1.763612
-0.97603101 3.623342 -1.228103
-42.011021 59.099171 -2.451273
-1.50314 4.3359489 -1.4605401
-1.797864 4.7343898 -1.493795
-1.975438 4.9744549 -1.433131
-2.2716169 5.3748651 -1.427127
-2.79582 6.0835419 -1.516446
-3.0190489 6.3853288 -1.420096
-3.440002 6.954422 -1.3947459
-4.2009301 7.9831319 -1.470673
-4.9406939 8.9832315 -1.480803
-5.6159081 9.8960629 -1.412902
-0.16768 2.5498569 -1.170954
-6.2143779 10.778422 -1.27909
-0.35202399 2.800719 -1.231707
-7.6297188 12.704469 -1.285501
-0.44375899 2.9255559 -1.1943099
-10.215797 16.223698 -1.41245
-0.77487803 3.376153 -1.353776
-15.545134 23.476049 -1.7642781
-0.91268802 3.5636899 -1.328258
-21.37092 31.40399 -1.759845
-0.83787501 3.4618821 -1.1337399
-41.927998 59.378799 -2.4594719
-1.4401619 4.281497 -1.426623
-1.764065 4.7222748 -1.482155
-2.116564 5.2019691 -1.530265
-2.3892159 5.5730028 -1.504595
-2.726815 6.0324211 -1.490829
-3.2379169 6.7279472 -1.536415
-3.5703959 7.1803961 -1.462617
-4.153821 7.9743419 -1.462373
-4.6204181 8.6093035 -1.376431
-5.4136071 9.6887035 -1.358838
-0.184773 2.592777 -1.197479
-6.058198 10.6384 -1.245369
-0.32859099 2.7897849 -1.218971
-7.6889262 12.872229 -1.309438
-0.374991 2.8533449 -1.141729
-10.753821 17.070629 -1.52953
-0.64603001 3.2246251 -1.254131
-15.025032 22.921482 -1.693866
-0.90448302 3.5786619 -1.3316801
-20.714457 30.715054 -1.693855
-1.044417 3.7703481 -1.298876
-41.639835 59.379364 -2.4515531
-1.404762 4.2639608 -1.4119771
-1.803974 4.8108158 -1.519256
-2.098943 5.2148752 -1.530265
-2.2642951 5.44138 -1.443773
-2.5872569 5.8837848 -1.4276789
-3.3209169 6.8887782 -1.587684
-3.6149991 7.2916222 -1.4930069
-4.1263318 7.992064 -1.461912
-4.6128421 8.6585007 -1.383916
-5.2903228 9.5865393 -1.329584
-0.25265601 2.7050691 -1.275013
-6.3290458 11.080789 -1.33032
-0.37235999 2.87007 -1.269914
-8.6275997 14.249124 -1.543528
-0.36118099 2.85466 -1.137974
-11.09504 17.650251 -1.607816
-0.53346503 3.0921371 -1.167053
-15.434034 23.631138 -1.769852
-0.88841999 3.581409 -1.328258
-20.707569 30.900196 -1.7040401
-1.1532691 3.9464769 -1.390798
-41.584297 59.676754 -2.461242
-1.403914 4.2919669 -1.421227
-1.69879 4.6984258 -1.459603
-2.2180121 5.4141231 -1.6144021
-2.2981279 5.5245552 -1.473224
-2.792819 6.20644 -1.546829
-3.1705689 6.7271318 -1.524838
-3.517169 7.204885 -1.459578
-4.144834 8.0700626 -1.479434
-4.6445251 8.7588387 -1.405123
-5.3495312 9.7306213 -1.358097
-0.137282 2.5655961 -1.167894
-6.132545 10.884353 -1.285251
-0.35188001 2.8633621 -1.2601171
-7.7651539 13.149687 -1.347294
-0.28692999 2.773241 -1.079759
-9.7374582 15.886366 -1.347638
-0.60921001 3.220422 -1.241563
-15.116274 23.349768 -1.731209
-0.96045101 3.707788 -1.39671
-21.186535 31.772589 -1.7730989
-1.151348 3.9726679 -1.3997459
-41.790138 60.361217 -2.492733
-1.190619 4.0271578 -1.279392
-1.700181 4.7342038 -1.471243
-2.0294051 5.19102 -1.508376
-2.2872469 5.54879 -1.477705
-2.66711 6.075871 -1.490829
-2.9941559 6.5296659 -1.449314
-3.675375 7.474895 -1.5411251
-4.167119 8.1572161 -1.499263
-4.7403898 8.9526625 -1.450447
-5.342947 9.7887421 -1.366244
-0.1825 2.6496069 -1.224004
-6.0801501 10.890393 -1.281036
-0.36235499 2.900918 -1.28069
-8.5373869 14.323891 -1.544641
-0.445968 3.017751 -1.2346849
-10.168943 16.603664 -1.445205
-0.59302998 3.2232411 -1.237972
-12.623375 20.033241 -1.344221
-0.90473098 3.6587801 -1.362484
-20.443424 30.960196 -1.696646
-1.079411 3.9028611 -1.355819
-41.580276 60.494717 -2.49208
-1.14907 4.000195 -1.26012
-1.654946 4.707056 -1.452328
-2.077563 5.2975779 -1.550102
-2.2487509 5.5367789 -1.466821
-2.558943 5.970211 -1.44436
-3.0438769 6.647809 -1.485147
-3.238235 6.919385 -1.356251
-4.13871 8.177619 -1.499263
-4.8266091 9.1388197 -1.493277
-5.138689 9.5748892 -1.311069
-0.197826 2.6914999 -1.249509
-5.9737401 10.815998 -1.260933
-0.31156099 2.851481 -1.241503
-7.323997 12.715294 -1.2615629
-0.61632502 3.2801671 -1.400878
-10.541331 17.24085 -1.5311559
-0.63237602 3.3027439 -1.2819591
-16.242149 25.259718 -1.937243
-0.96319002 3.768074 -1.420669
-20.251148 30.898846 -1.6853451
-1.066936 3.9140029 -1.356632
-1.118121 3.986001 -1.247787
-1.682061 4.7792501 -1.481428
-2.1032 5.3716311 -1.577464
-2.2212951 5.537745 -1.4617
-2.577625 6.0389652 -1.465211
-3.1353331 6.8234458 -1.5413769
-3.2566919 6.994153 -1.374992
-4.0226469 8.071559 -1.462834
-4.7104568 9.0390444 -1.461674
-5.213223 9.7462425 -1.345507
-0.156882 2.6530471 -1.216863
-6.2364998 11.258694 -1.3452359
-0.32705599 2.8939271 -1.265995
-8.5158129 14.485041 -1.561342
-0.60335702 3.285028 -1.399
-10.365149 17.102758 -1.506068
-0.64406598 3.3426521 -1.3017091
-14.33326 22.719585 -1.640918
-0.86215103 3.6513491 -1.3479379
-21.335861 32.631706 -1.8280669
-1.128973 4.0290351 -1.414389
-41.308918 60.903393 -2.5002789
-1.106159 3.9967401 -1.248558
-1.64733 4.762763 -1.468333
-1.81604 5.0015712 -1.407138
-2.3359461 5.737494 -1.539168
-2.557399 6.0509582 -1.4646159
-3.1294091 6.8606329 -1.549094
-3.3564169 7.181962 -1.4302011
-4.000855 8.0941582 -1.464218
-4.7072558 9.0940628 -1.470823
-5.185358 9.7708101 -1.346248
-0.031665001 2.495059 -1.097501
-6.0014429 11.001807 -1.288493
-0.35275501 2.9526019 -1.301264
-8.2573929 14.216465 -1.50957
-0.534962 3.2122409 -1.346419
-10.334067 17.175661 -1.510946
-0.61586899 3.3275321 -1.287346
-14.808479 23.551559 -1.729908
-0.77568197 3.5552599 -1.287186
-21.036003 32.425583 -1.8042099
-0.82956898 3.6320479 -1.1931241
-41.366306 61.395634 -2.5205891
-1.106113 4.026114 -1.258579
-1.651427 4.8031688 -1.482155
-2.0387211 5.355051 -1.558995
-2.0401881 5.357141 -1.376549
-2.4943399 6.0042939 -1.441381
-3.1154101 6.8892999 -1.5535049
-3.3536899 7.2288408 -1.4398251
-4.062458 8.2388144 -1.500646
-4.6009831 9.0061951 -1.442547
-5.1240168 9.751503 -1.33662
-6.073925 11.182314 -1.319621
-0.2764 2.865571 -1.236605
-8.3926315 14.508577 -1.554105
-0.39030099 3.028966 -1.222479
-10.291282 17.232252 -1.513501
-0.67466497 3.4368961 -1.349287
-12.312111 20.131201 -1.334932
-0.69708103 3.469053 -1.2324229
-20.905371 32.458515 -1.800862
-1.0300339 3.9466851 -1.359073
-41.163944 61.520111 -2.519937
-1.189284 4.1751342 -1.329496
-1.56155 4.7091622 -1.431959
-1.822866 5.0840278 -1.433131
-2.2127819 5.6433759 -1.48923
-2.4381671 5.9666982 -1.4217221
-2.8187289 6.5126281 -1.416237
-3.4458699 7.412282 -1.4930069
-3.8438661 7.9832211 -1.421334
-4.4986811 8.922574 -1.415518
-5.0448809 9.7061167 -1.321067
-0.150537 2.7057681 -1.240327
-5.8509998 10.938279 -1.2657959
-0.36241299 3.0117569 -1.331634
-7.8496561 13.824704 -1.431633
-0.52528399 3.2469721 -1.3586251
-9.828723 16.682838 -1.429873
-0.71652198 3.523155 -1.396865
-13.78022 22.389523 -1.586112
-0.64786601 3.4240029 -1.20162
-20.697546 32.379406 -1.788027
-1.009084 3.945667 -1.3533781
-41.0784 61.813084 -2.5288811
-1.293613 4.3565798 -1.416602
-1.4924541 4.6437421 -1.3955849
-1.928658 5.2737002 -1.511796
-2.2423151 5.7266788 -1.5180399
-2.281199 5.7828331 -1.346657
-2.7378891 6.442378 -1.3864681
-3.502809 7.5470619 -1.530488
-3.8728969 8.0815363 -1.4443901
-4.5785022 9.1005602 -1.456269
-5.0690432 9.8089895 -1.339582
-0.108598 2.665736 -1.206661
-5.9528999 11.162896 -1.305678
-0.324016 2.9789369 -1.304203
-7.2549601 13.055989 -1.295243
-0.504807 3.2417929 -1.350175
-9.9055758 16.909777 -1.45682
-0.70519602 3.533143 -1.397763
-13.896997 22.712994 -1.617138
-0.72598702 3.5633719 -1.2769181
-20.630625 32.503159 -1.792491
-1.005769 3.970154 -1.361513
-40.847622 61.897091 -2.5259931
-1.279698 4.3684249 -1.4173729
-43.219044 65.344955 -0.852593
-1.358346 4.4827728 -1.314108
-1.662659 4.92522 -1.352415
-2.259552 5.793056 -1.539808
-2.5181711 6.1690669 -1.48785
-2.8885059 6.7075062 -1.47357
-3.2585249 7.2454839 -1.429188
-4.0723038 8.4286556 -1.538919
-4.4898629 9.0357552 -1.43423
-4.9144158 9.6530209 -1.298849
-0.088283002 2.6567211 -1.195439
-5.9744272 11.272558 -1.322539
-0.23667 2.8739231 -1.227788
-7.0260682 12.811895 -1.248759
-0.49733901 3.255476 -1.353931
-10.059566 17.252176 -1.500028
-0.712991 3.571136 -1.415717
-13.650197 22.507957 -1.588341
-0.85424697 3.7779009 -1.394999
-20.433739 32.437355 -1.780911
-0.86113101 3.787977 -1.258202
-40.804981 62.255737 -2.5386641
-1.075233 4.1013689 -1.277079
-1.627791 4.9101748 -1.511254
-1.8611259 5.251718 -1.491275
-2.219769 5.7766809 -1.527644
-2.515821 6.2100282 -1.497978
-2.914957 6.7942619 -1.498377
-3.3436241 7.4217229 -1.479838
-3.9215851 8.2677135 -1.487273
-4.281415 8.7944136 -1.3668669
-4.90941 9.7136412 -1.307736
-0.122136 2.7273209 -1.241347
-5.7382522 11.003603 -1.2641751
-0.162736 2.7871511 -1.164109
-7.0467949 12.931959 -1.264347
-0.506666 3.2939889 -1.373648
-10.559529 18.108559 -1.615714
-0.60617 3.440625 -1.331333
-14.302721 23.624775 -1.708729
-0.81877798 3.7539389 -1.376175
-19.458899 31.223259 -1.67237
-0.81718302 3.7515881 -1.233798
-40.887268 62.801529 -2.561862
-1.1211801 4.1995778 -1.321788
-1.4782391 4.7257638 -1.418864
-1.751542 5.1285219 -1.4317631
-2.1780021 5.7569818 -1.514199
-2.311717 5.9540319 -1.3961051
-2.61166 6.396049 -1.355046
-3.1571529 7.199923 -1.404369
-3.846246 8.2154169 -1.466985
-4.5128379 9.197752 -1.465417
-5.045351 9.9824982 -1.364022
-0.066685997 2.6651421 -1.192379
-5.6778998 10.987243 -1.256393
-0.25367001 2.942462 -1.265016
-7.550838 13.765033 -1.401015
-0.46311501 3.253094 -1.342663
-10.416821 18.015629 -1.597362
-0.62074 3.4868701 -1.354673
-13.589007 22.72036 -1.601532
-0.82362002 3.787765 -1.390721
-20.375494 32.785526 -1.798769
-0.78544497 3.7311471 -1.2183419
-40.755383 63.011337 -2.5665209
-1.119898 4.227181 -1.331038
-1.404689 4.64956 -1.378126
-1.7897559 5.2206602 -1.467333
-2.0410769 5.5934 -1.442493
-2.4486749 6.197916 -1.483084
-2.797832 6.7157578 -1.460891
-3.107537 7.175087 -1.3917069
-3.8696151 8.3053398 -1.487735
-4.2984071 8.9412899 -1.394727
-4.9375982 9.889286 -1.338101
-5.858428 11.334344 -1.320269
-0.30234301 3.037899 -1.3247761
-6.9596748 12.978746 -1.262955
-0.42509699 3.2211969 -1.317312
-8.5472422 15.34933 -1.21662
-0.659235 3.570817 -1.400456
-13.856478 23.277174 -1.658567
-0.75814402 3.718509 -1.346226
-20.660803 33.437511 -1.847738
-0.93308699 3.979738 -1.346871
-1.1679879 4.3304949 -1.37806
-1.37326 4.637012 -1.367214
-1.771034 5.2309761 -1.4666491
-2.1171179 5.7477541 -1.500114
-2.43855 6.2277212 -1.489041
-2.6502919 6.5438991 -1.396391
-3.0438819 7.1316142 -1.3729661
-3.4816329 7.7852721 -1.334182
-4.290802 8.9935389 -1.403044
-4.9205518 9.9338923 -1.343285
-0.036373001 2.6626649 -1.181156
-5.82166 11.363625 -1.320918
-0.19825099 2.906126 -1.230727
-7.351706 13.664783 -1.373737
-0.318234 3.0865791 -1.226234
-9.9907827 17.633905 -1.53255
-0.69355202 3.6510489 -1.4435461
-13.438286 22.818882 -1.601346
-0.73746598 3.7170949 -1.340237
-19.773001 32.346169 -1.7498
-0.77590799 3.7749121 -1.2321711
-1.181917 4.385541 -1.400414
-1.168804 4.365819 -1.234812
-1.593132 5.0040011 -1.361991
-2.1019549 5.7692609 -1.503315
-2.4070339 6.2280941 -1.48368
-2.5601799 6.4584222 -1.361661
-3.0145941 7.1418519 -1.37094
-3.94366 8.5391493 -1.54353
-4.1556358 8.8579569 -1.363124
-4.8546901 9.9093199 -1.332546
-0.026327999 2.667259 -1.180136
-5.8421979 11.470762 -1.337454
-0.191314 2.9169991 -1.2336659
-6.8437791 12.986858 -1.2548831
-0.37504101 3.1951079 -1.291021
-9.9186039 17.641232 -1.5286011
-0.68447399 3.6634979 -1.446239
-13.077345 22.422628 -1.551928
-0.68936598 3.670902 -1.309433
-20.53023 33.704082 -1.858202
-0.81587702 3.8624029 -1.274472
-0.95001203 4.065443 -1.235453
-1.32306 4.630127 -1.3541189
-1.465201 4.8452859 -1.288115
-2.005301 5.662838 -1.455297
-2.3789279 6.2283988 -1.478914
-2.7718861 6.8232188 -1.48239
-3.016722 7.1938291 -1.3825901
-3.8463089 8.4495783 -1.513096
-4.303905 9.1422424 -1.430904
-4.9573212 10.131321 -1.378094
-5.7691412 11.440886 -1.326754
-0.065142997 2.747468 -1.1151249
-6.860353 13.103992 -1.269913
-0.42767301 3.2999971 -1.3529921
-10.240011 18.254904 -1.6092089
-0.65012598 3.6390369 -1.4264899
-13.172717 22.724617 -1.580353
-0.57937902 3.5312099 -1.225578
-19.639324 32.580318 -1.758311
-0.75135601 3.793319 -1.2329839
-1.0594831 4.2629342 -1.329496
-1.305198 4.6374259 -1.352664
-1.4466439 4.8530021 -1.286747
-1.99559 5.6896472 -1.461059
-2.159085 5.938828 -1.365721
-2.736515 6.8188848 -1.475775
-3.0671411 7.3227878 -1.418045
-3.743747 8.3540001 -1.480818
-4.3640461 9.2993917 -1.4658329
-4.8465738 10.034808 -1.351432
-0.047008999 2.7401061 -1.222984
-5.717804 11.43909 -1.32189
-0.11483 2.8441441 -1.1758651
-6.8505259 13.17668 -1.277707
-0.396431 3.276119 -1.333274
-9.5760231 17.357584 -1.478888
-0.53662503 3.4911759 -1.333128
-13.556422 23.463505 -1.657639
-0.50057298 3.4358709 -1.167393
-19.704794 32.895088 -1.779238
-0.77581799 3.8580971 -1.263083
-1.1081181 4.3678432 -1.3772891
-1.234279 4.5613751 -1.3126529
-1.420778 4.8474631 -1.279906
-2.0116479 5.7538562 -1.482187
-2.2820539 6.1686578 -1.446743
-2.7014251 6.8119712 -1.468608
-2.979749 7.2389202 -1.387148
-3.7315619 8.3922005 -1.486812
-4.119432 8.9871912 -1.3818361
-4.8488531 10.106119 -1.362911
-0.037519999 2.7483201 -1.224004
-5.8447061 11.721426 -1.372148
-0.124903 2.883342 -1.197418
-6.9636388 13.450371 -1.318624
-0.31802699 3.181751 -1.268487
-9.6196098 17.554304 -1.500957
-0.432432 3.3585269 -1.248744
-13.839659 24.075008 -1.7198761
-0.66561198 3.7188311 -1.322268
-19.200781 32.358868 -1.7285939
-0.65248698 3.69855 -1.173601
-0.94088501 4.1441751 -1.260891
-1.36458 4.7988582 -1.418137
-1.5544831 5.0922899 -1.381144
-1.886215 5.6048741 -1.416883
-2.4397049 6.4601111 -1.549808
-2.628391 6.7516632 -1.442698
-3.0300801 7.3723421 -1.4236161
-3.5279109 8.1415768 -1.410728
-4.0776429 8.9910088 -1.377678
-4.8225198 10.141973 -1.3658741
-5.7852468 11.712806 -1.3656631
-0.026903 2.7535901 -1.106308
-6.6727209 13.093595 -1.254326
-0.30389899 3.1845591 -1.2656699
-9.4041901 17.343397 -1.466576
-0.491153 3.4759021 -1.3142771
-14.055553 24.580296 -1.770409
-0.688824 3.7834511 -1.353927
-20.469908 34.560173 -1.906055
-0.839149 4.0173359 -1.337922
-41.383606 67.099091 -2.7418611
-1.08425 4.3986812 -1.3826849
-1.3885241 4.8720899 -1.4472359
-1.546357 5.1176581 -1.387301
-2.0742731 5.939024 -1.546211
-2.2632909 6.2331109 -1.460445
-2.6339669 6.809834 -1.457583
-2.7796781 7.036541 -1.314212
-3.7998829 8.6238441 -1.5416861
-4.061862 9.0314474 -1.3830841
-4.8510041 10.259248 -1.387351
-5.4424062 11.259769 -1.272606
-0.022614 2.7687609 -1.112186
-6.7901239 13.371195 -1.296078
-0.110204 2.9059861 -1.085393
-9.7759027 18.048914 -1.559497
-0.41838399 3.3888011 -1.2577209
-13.316996 23.596626 -1.655967
-0.56089801 3.6120729 -1.252959
-20.466228 34.797092 -1.919867
-0.83311999 4.0385551 -1.34443
-41.242264 67.346214 -2.748009
-0.963907 4.243454 -1.300975
-1.296766 4.7649331 -1.392675
-1.6007971 5.2412491 -1.435867
-2.0339479 5.9198518 -1.533406
-2.2814641 6.3076272 -1.483084
-2.6081891 6.8194962 -1.455929
-2.832283 7.1705761 -1.351187
-3.3579071 7.9940538 -1.359544
-4.1564021 9.2450294 -1.432151
-4.7550902 10.182975 -1.365503
-0.0055470001 2.7626741 -1.220943
-5.5113559 11.445134 -1.304381
-0.067362003 2.8601539 -1.1690069
-6.8881712 13.616323 -1.332541
-0.025676001 2.7944169 -1.011216
-9.5870733 17.872393 -1.5302269
-0.410961 3.4019971 -1.261312
-12.657062 22.713652 -1.553414
-0.57899398 3.66698 -1.279485
-20.452524 35.006809 -1.931725
-0.85124999 4.0963168 -1.370461
-41.094574 67.558571 -2.7526679
-0.934304 4.2272911 -1.288641
-1.192632 4.634665 -1.32793
-1.5850509 5.2534952 -1.436552
-2.0730181 6.0230012 -1.569899
-2.1971309 6.2187209 -1.445552
-2.598074 6.850996 -1.461993
-2.9362111 7.3842239 -1.41298
-3.377794 8.0805845 -1.379372
-3.8647959 8.8485699 -1.32778
-4.6889281 10.148196 -1.353283
-5.3237209 11.229862 -1.258015
-6.3839502 12.913475 -1.211182
-0.188776 3.0757141 -1.183982
-9.2522783 17.4683 -1.469364
-0.31138799 3.2704179 -1.1787241
-12.39019 22.451214 -1.519415
-0.66349798 3.8295591 -1.365907
-20.179586 34.820553 -1.910519
-0.78161502 4.0171261 -1.324093
-0.87943399 4.1724591 -1.257037
-1.33167 4.8905969 -1.441417
-1.57128 5.271091 -1.439288
-1.959931 5.888258 -1.510998
-2.265847 6.374043 -1.497978
-2.4082849 6.6002312 -1.372135
-3.0591669 7.6338129 -1.485409
-3.4610529 8.2719975 -1.42825
-4.183897 9.4198532 -1.466665
-4.715456 10.263954 -1.374391
-5.6543889 11.844824 -1.372472
-0.045341 2.871958 -1.168027
-6.8142691 13.700298 -1.336995
-0.075208001 2.9197371 -1.081637
-7.5714011 14.911492 -1.1116199
-0.41193601 3.458405 -1.28555
-13.108103 23.768623 -1.659125
-0.61496103 3.783186 -1.335103
-19.825768 34.514954 -1.8792681
-0.75532901 4.0077348 -1.314332
-40.866611 68.174263 -2.771301
-0.877949 4.2038922 -1.2678289
-1.357556 4.9711261 -1.473425
-1.4837151 5.1729422 -1.392089
-1.62168 5.3936481 -1.308684
-2.2848499 6.4545288 -1.522403
-2.4675901 6.74686 -1.4167891
-2.956604 7.5291419 -1.447928
-3.6808729 8.6877642 -1.53938
-3.9812341 9.1682558 -1.398469
-4.5685811 10.107841 -1.3347681
-5.160965 11.131464 -1.23013
-0.029185999 2.8676441 -1.16117
-6.7410522 13.675912 -1.328645
-0.37463999 3.4239359 -1.393366
-8.831686 17.042507 -1.401067
-0.42404899 3.5035009 -1.3079931
-12.044622 22.216372 -1.483745
-0.57678902 3.7494619 -1.312
-20.219929 35.381248 -1.945258
-0.86658102 4.2161188 -1.41927
-40.87376 68.640579 -2.7899351
-1.031734 4.482069 -1.400414
-1.147989 4.6692781 -1.330112
-1.2183059 4.7825098 -1.220395
-1.488524 5.217649 -1.234416
-2.103343 6.207705 -1.427084
-2.643126 7.07693 -1.523736
-2.9738851 7.6095591 -1.468189
-3.7195921 8.8103876 -1.568892
-4.197413 9.579834 -1.49702
-4.5892191 10.210768 -1.353283
-5.3463759 11.513391 -1.299518
-0.049111001 2.9229791 -1.193499
-6.851675 13.954488 -1.370118
-0.233778 3.2224491 -1.262853
-9.0823278 17.571869 -1.4691319
-0.41458699 3.515661 -1.310686
-11.521963 21.528151 -1.403486
-0.45272601 3.5775101 -1.211887
-19.640348 34.693481 -1.8830349
-0.76959002 4.0913582 -1.349311
-0.96504098 4.4083161 -1.3595591
-1.1643161 4.731473 -1.3541189
-1.450593 5.1957188 -1.392773
-1.479808 5.2430968 -1.2401789
-2.2138381 6.4334502 -1.505127
-2.4056849 6.7445631 -1.406866
-2.982209 7.679493 -1.484903
-3.34639 8.2700748 -1.4134949
-4.0530782 9.4160891 -1.451279
-4.5414062 10.207996 -1.348099
-5.4253712 11.726598 -1.336157
-0.061425 2.9665749 -1.217991
-6.8148131 13.995735 -1.372345
-0.29339299 3.3454101 -1.335152
-9.1139898 17.750591 -1.4888771
-0.43307301 3.573525 -1.34031
-13.000364 24.097546 -1.679933
-0.51857102 3.7131541 -1.282907
-19.732121 35.091377 -1.9101011
-0.748788 4.089128 -1.343616
-40.793831 69.487892 -2.8216109
-0.89884502 4.3341908 -1.318705
-1.1267771 4.7064338 -1.338115
-1.430053 5.2017221 -1.390721
-1.7866009 5.7840118 -1.450175
-2.0786929 6.2610359 -1.437211
-2.5217631 6.9846268 -1.482941
-3.0073209 7.777606 -1.510228
-3.3059161 8.2652512 -1.4075
-4.0068879 9.4100304 -1.445042
-4.533709 10.270397 -1.357357
-5.4560242 11.858173 -1.357233
-0.032398999 2.9413919 -1.197418
-6.5672469 13.685095 -1.316954
-0.202433 3.220938 -1.253464
-9.3357153 18.236631 -1.550902
-0.37576401 3.5059061 -1.2963229
-13.020751 24.295063 -1.696653
-0.544873 3.783931 -1.3179899
-19.45669 34.876148 -1.887221
-0.72501302 4.080092 -1.334668
-0.91355801 4.3900719 -1.34183
-1.046748 4.609045 -1.289373
-1.456391 5.2825251 -1.420819
-1.837162 5.9085369 -1.494992
-2.2037671 6.5112581 -1.524191
-2.6117311 7.1819758 -1.5446841
-3.0504019 7.9031801 -1.5441639
-3.195231 8.1412878 -1.368766
-4.000123 9.4645796 -1.45419
-4.3365612 10.017706 -1.297367
-5.3877902 11.837216 -1.348478
-6.6187539 13.8762 -1.343675
-0.153905 3.167752 -1.215906
-9.0674849 17.932304 -1.504209
-0.409906 3.591794 -1.342106
-13.083886 24.585115 -1.722849
-0.52818 3.787704 -1.315423
-19.543749 35.285301 -1.914844
-0.76207602 4.1751342 -1.37941
-40.338371 69.729744 -2.820214
-0.93103898 4.4550052 -1.368809
-1.197657 4.8966331 -1.4159549
-1.499691 5.3969269 -1.464597
-1.82895 5.9423151 -1.503315
-1.82461 5.9351249 -1.3091249
-2.3808801 6.8565378 -1.43057
-3.0398369 7.948041 -1.552775
-3.2634349 8.3184118 -1.413033
-3.96333 9.477725 -1.452527
-4.5396709 10.432384 -1.3840179
-5.3310409 11.829898 -1.3426419
-0.01257 2.9574399 -1.1993769
-6.5545101 13.870932 -1.338387
-0.224398 3.310817 -1.300411
-8.9873629 17.929501 -1.499099
-0.34865201 3.5181019 -1.2945271
-12.832283 24.343731 -1.691451
-0.51315099 3.792527 -1.313711
-18.970947 34.584461 -1.852203
-0.791839 4.257443 -1.417643
-40.284222 70.140007 -2.8353069
-0.76205897 4.2077632 -1.243932
-1.021039 4.6398029 -1.294466
-1.325892 5.1483679 -1.354467
-1.495322 5.4310169 -1.297159
-1.843951 6.0126119 -1.332955
-2.5784831 7.2379851 -1.5535049
-2.9907041 7.9256659 -1.5411251
-3.409116 8.6236753 -1.492807
-3.994627 9.6004448 -1.478308
-4.6056452 10.619766 -1.420679
-5.55199 12.288713 -1.425972
-0.016282 2.9877191 -1.215052
-6.6585379 14.147915 -1.379303
-0.250662 3.38152 -1.339846
-8.8433723 17.818832 -1.479353
-0.27691799 3.4256351 -1.236177
-10.422199 20.471548 -1.266006
-0.55359203 3.8904979 -1.36334
-18.596664 34.206127 -1.816069
-0.70991403 4.1531458 -1.359073
-40.244297 70.578079 -2.851891
-0.88915002 4.4542952 -1.3595591
-1.060456 4.7421212 -1.336659
-1.45647 5.4074969 -1.4598089
-1.472142 5.4338279 -1.2939579
-2.0776639 6.4512162 -1.48785
-2.474822 7.1185131 -1.5088511
-2.9843161 7.974555 -1.551255
-3.2871821 8.4834242 -1.4494621
-4.1662889 9.9604855 -1.5627199
-4.4976149 10.517172 -1.393646
-5.3506069 12.034144 -1.37312
-6.400661 13.810395 -1.320016
-0.20798001 3.334976 -1.306983
-8.5345259 17.42 -1.420813
-0.24554899 3.3985269 -1.216427
-11.914749 23.13792 -1.550999
-0.48565599 3.804687 -1.312
-19.451332 35.886654 -1.947629
-0.68988502 4.150157 -1.3533781
-0.70099199 4.1689458 -1.216953
-1.09259 4.8313651 -1.373033
-1.365582 5.2931528 -1.407138
-1.757585 5.9562569 -1.494992
-2.0184569 6.397543 -1.46402
-2.3615091 6.9778442 -1.457583
-2.944679 7.964323 -1.543658
-3.3717229 8.6867027 -1.501107
-4.0797739 9.884428 -1.539434
-4.5212069 10.631148 -1.414384
-5.3974161 12.203552 -1.401005
-0.024675 3.0495961 -1.247381
-6.557478 14.18004 -1.375963
-0.26863801 3.4652541 -1.383038
-8.3055372 17.158344 -1.380857
-0.34940001 3.602855 -1.331333
-12.12095 23.658958 -1.6026469
-0.46602699 3.801563 -1.30601
-19.049397 35.46349 -1.907868
-0.35003 3.603929 -1.067036
-0.81927401 4.4034152 -1.326413
-1.128947 4.9310312 -1.413772
-1.4085619 5.407433 -1.4509161
-1.6953959 5.896132 -1.466821
-1.763208 6.0116711 -1.319849
-2.511528 7.2866411 -1.55571
-2.912498 7.9698048 -1.5406179
-3.2860119 8.6061897 -1.474362
-4.0385189 9.8882942 -1.535691
-4.3273382 10.380378 -1.355135
-4.8649502 11.380968 -1.240181
-0.013829 3.055939 -1.247381
-6.323173 13.883431 -1.323356
-0.197805 3.3716619 -1.321068
-8.5603685 17.722694 -1.452871
-0.29362199 3.5360949 -1.2882431
-11.469813 22.715601 -1.496006
-0.45099601 3.806164 -1.304299
-19.477049 36.456848 -1.982926
-0.691598 4.2190628 -1.380223
-40.44997 72.44857 -2.931921
-0.899872 4.5764828 -1.40581
-1.043713 4.823329 -1.360666
-1.404495 5.4424691 -1.461177
-1.683231 5.9208069 -1.471943
-1.824753 6.1636739 -1.370487
-2.3228099 7.0183921 -1.461993
-2.8998189 8.0086002 -1.547709
-3.281209 8.663106 -1.485429
-3.897826 9.7212839 -1.489951
-4.421092 10.619263 -1.402904
-5.1087408 11.882969 -1.331618
-0.073438004 3.182627 -1.325756
-6.0238152 13.464096 -1.251264
-0.073383003 3.182533 -1.200883
-8.5393925 17.810682 -1.460537
-0.30700099 3.586194 -1.313379
-11.258533 22.509003 -1.46944
-0.33618501 3.63662 -1.2076091
-19.371601 36.527313 -1.983484
-0.67879701 4.22861 -1.381036
-0.86845601 4.556314 -1.391935
-1.120589 4.9919672 -1.432687
-1.183805 5.1011958 -1.313424
-1.626498 5.8661098 -1.446334
-1.7918741 6.1518588 -1.362147
-2.1351449 6.7449851 -1.367174
-2.797318 7.8891349 -1.507189
-3.388823 8.9111767 -1.549063
-3.564976 9.2155466 -1.361461
-4.429719 10.709709 -1.418457
-4.981472 11.755877 -1.303084
-0.072834 3.2091401 -1.338491
-6.3151321 14.077994 -1.346459
-0.022794001 3.1220119 -1.15957
-8.3899002 17.690502 -1.43963
-0.30266899 3.6093211 -1.322356
-12.079038 24.11389 -1.637388
-0.42631999 3.8246169 -1.30601
-19.322548 36.726017 -1.993809
-0.667072 4.2438049 -1.38429
-40.385422 73.399895 -2.9688151
-0.815238 4.5017872 -1.361101
-1.1360919 5.0604448 -1.458876
-1.3181109 5.3773689 -1.4249229
-1.494346 5.6842232 -1.370786
-1.734943 6.1031418 -1.340104
-2.2416439 6.9853902 -1.442147
-2.7601659 7.8882198 -1.502124
-3.3588829 8.930685 -1.549525
-3.5476711 9.2593956 -1.367698
-4.3438978 10.645756 -1.399942
-4.750793 11.435394 -1.23856
-6.260365 14.081957 -1.343118
-0.01846 3.1387351 -1.166142
-8.5822344 18.152624 -1.497705
-0.213726 3.4810741 -1.244256
-11.498129 23.264729 -1.5417089
