# .PCD v0.7 - Point Cloud Data file format
VERSION 0.7
FIELDS x y z
SIZE 4 4 4
TYPE F F F
COUNT 1 1 1
WIDTH 1422
HEIGHT 1
VIEWPOINT 0 0 0 1 0 0 0
POINTS 1422
DATA ascii
0.26105046 -2.9693835 0.7105487
0.030704975 -3.3097303 -0.56430924
0.25651491 -2.9760849 0.85493922
0.42980886 -2.7200346 -0.1701442
0.26069391 -2.9699104 0.92795372
0.35851407 -2.8253763 -0.14359546
0.13019025 -3.1627359 1
0.24927402 -2.9867837 -0.13687491
0.14999521 -3.1334729 -0.11528754
0.39825499 -2.7515962 -0.68738663
-0.35088396 -3.8514416 0.31390589
0.390221 -2.7633913 -0.60667193
0.41240788 -2.7308176 -0.49949229
0.43046844 -2.7043021 -0.40041566
0.032366395 -3.2887743 -0.55617452
0.24100685 -2.9824593 0.85428703
0.43020499 -2.704689 -0.16474819
0.25420237 -2.9630866 0.92800009
0.33349633 -2.8466713 -0.15596271
0.11862409 -3.1621351 1
0.25641894 -2.9598322 -0.12729836
-0.044770241 -3.4020221 -0.22732854
-0.13963747 -3.541301 0.099435449
0.38892925 -2.7493899 -0.68942714
0.39365125 -2.7425039 -0.59589553
0.4030956 -2.7287312 -0.50137019
0.37549925 -2.7689745 -0.35964763
0.028467178 -3.275044 -0.5521071
0.23064268 -2.9802158 0.8541007
0.42401588 -2.6982238 -0.16397738
0.23485088 -2.9740789 0.92753589
0.30685306 -2.8690798 -0.16905725
0.10316932 -3.1661074 1
0.25476277 -2.9450419 -0.1231941
-0.012400627 -3.3346405 -0.20235944
0.18839228 -3.0418286 0.24099886
0.37960148 -2.7471483 -0.6914674
0.38530898 -2.7388809 -0.59687519
0.38374829 -2.7411416 -0.5126375
-0.0067977905 -3.3068478 -0.67196441
0.025672555 -3.2598145 -0.54722619
0.21914005 -2.9795766 0.85382116
0.41260958 -2.6993358 -0.16706073
0.22222888 -2.9751024 0.92735022
0.29063678 -2.8760138 -0.17487717
0.088807225 -3.1683638 1
0.24250472 -2.9457328 -0.12593031
-0.14348006 -3.5048318 0.012319386
-0.27510142 -3.6954858 0.14880943
0.36577392 -2.7522192 -0.69860864
0.37638676 -2.7369435 -0.59883451
0.37882423 -2.7334352 -0.51075959
-0.01644516 -3.3023651 -0.67282009
0.013025999 -3.2599459 -0.55048025
0.20123506 -2.9890478 0.8529827
0.40263534 -2.6991627 -0.16937327
0.20775115 -2.9796689 0.92707169
0.26841629 -2.8923507 -0.18506181
0.078319311 -3.1659663 1
0.2403208 -2.9327898 -0.12251008
-0.15268278 -3.4984584 0.012319386
-0.25584793 -3.6469491 0.15962082
0.34614861 -2.763701 -0.71085083
-0.34089255 -3.7456269 0.32914525
0.36364841 -2.7386899 -0.60373294
0.35287297 -2.7540905 -0.52766061
-0.027094603 -3.2971439 -0.67367578
0.0046008825 -3.2518444 -0.54966664
0.19036901 -2.9863427 0.85279638
0.38973022 -2.7014136 -0.17322755
0.18889058 -2.9884558 0.92665386
0.24414062 -2.9094918 -0.19597387
0.066864848 -3.1628561 1
0.2265445 -2.9346402 -0.12593031
-0.16294527 -3.4913032 0.012319386
-0.27445316 -3.6506712 0.15671009
0.33419085 -2.7658162 -0.7159518
0.35169756 -2.740953 -0.60863125
0.35199535 -2.7405298 -0.5220269
0.020334125 -3.2115619 -0.72717941
-0.028396606 -3.2807703 -0.6676861
0.0035113096 -3.2354541 -0.54397237
0.17810249 -2.9874961 0.85242367
0.37759638 -2.7041707 -0.1770817
0.18582296 -2.9765315 0.92683959
0.21954143 -2.9286437 -0.20761359
0.048312902 -3.1718259 1
0.19631004 -2.9616375 -0.14029515
-0.27845669 -3.6359105 0.15878928
0.33431482 -2.749053 -0.70779026
0.33688366 -2.7454302 -0.61548901
0.36160731 -2.7105634 -0.50606489
-0.056173801 -3.2997444 -0.78552997
-0.026436567 -3.257807 -0.65827382
0.18123853 -2.9649308 0.78012758
0.006801486 -3.2109327 -0.53421068
0.16259825 -2.9912183 0.8518647
0.36355937 -2.7078104 -0.18170679
0.16687977 -2.9851804 0.92642176
0.18530309 -2.9591985 -0.2250731
0.037974834 -3.16697 1
0.19217324 -2.9495099 -0.13755906
-0.2880435 -3.6267414 0.15920508
0.31436276 -2.7623043 -0.72105277
0.34039903 -2.7258162 -0.5192101
-0.072035313 -3.3038144 -0.79181385
-0.039107084 -3.2576678 -0.66169655
-0.018510103 -3.2288027 -0.54722619
0.14911592 -2.9938862 0.85139883
0.33849621 -2.728483 -0.19481122
0.15457177 -2.9862401 0.92623609
0.1474185 -2.9962652 -0.24544251
0.02164185 -3.1725323 1
0.17588365 -2.9563732 -0.14303136
-0.20942926 -3.4963624 0.0042153001
-0.27942657 -3.5944588 0.16585827
0.29992497 -2.7667775 -0.72819412
0.32794964 -2.7277625 -0.5239048
-0.078019142 -3.2929363 -0.78912091
-0.040691853 -3.2409706 -0.65570676
-0.016727448 -3.2076082 -0.53909147
0.13981092 -2.989682 0.85130572
0.32580638 -2.7307463 -0.19866538
0.14179051 -2.9869261 0.92605042
0.11862111 -3.0191815 -0.25926447
0.010608315 -3.1695526 1
0.16128349 -2.9597886 -0.1471355
-0.22253156 -3.4941208 0.0026957989
0.29794788 -2.7547514 -0.72309315
0.30553257 -2.7442584 -0.53798902
-0.079265833 -3.2766182 -0.78283691
-0.033228397 -3.2129266 -0.64287186
-0.0047137737 -3.1734772 -0.52363563
0.12511253 -2.9938655 0.85074669
0.29835677 -2.7541859 -0.21331155
0.12943709 -2.9878826 0.9258647
0.10321784 -3.0241563 -0.26435685
-0.0022876263 -3.170121 1
-0.22376943 -3.4765358 0.0062413216
-0.31077218 -3.5969024 0.2567994
0.30371654 -2.7313101 -0.70983076
0.30856657 -2.7246444 -0.5285995
-0.083034277 -3.2628465 -0.77834845
-0.059071779 -3.2299132 -0.65656257
-0.024165869 -3.1819398 -0.53177035
0.11344731 -2.9928093 0.85046721
0.27251148 -2.7741973 -0.22641587
0.11661136 -2.9884608 0.92567903
0.092791438 -3.0211978 -0.26581192
-0.016863346 -3.1719034 1
0.13904619 -2.9576271 -0.15123975
-0.2482214 -3.4898734 -0.00034320354
-0.28010321 -3.5336907 0.1762538
-0.36127567 -3.645251 0.24383879
0.26854372 -2.7631383 -0.73737574
-0.084066153 -3.2443898 -0.7711668
-0.052418947 -3.2011967 -0.64372754
-0.021501541 -3.1590002 -0.52282202
0.10249782 -2.9897621 0.85028088
0.25264966 -2.7848308 -0.23489523
0.097402334 -2.9967167 0.92526126
0.084109664 -3.0148587 -0.26581192
-0.029590368 -3.1700399 1
-0.3078258 -3.549783 0.17001647
0.26051879 -2.7593751 -0.73839593
-0.08189106 -3.2238085 -0.76218975
-0.045703173 -3.1747243 -0.63174832
-0.021005392 -3.1412249 -0.51631427
0.087708831 -2.9937687 0.84972185
0.23243952 -2.7974608 -0.24414527
0.089705825 -2.99106 0.92526126
0.095153809 -2.9836707 -0.25344467
-0.050855875 -3.1817131 1
-0.31047463 -3.5338514 0.26642734
0.2654177 -2.7373221 -0.72615361
-0.58217382 -3.8794382 -1.4345
-0.10246754 -3.2330415 -0.77206445
-0.046868324 -3.1581228 -0.62575865
0.025924444 -3.0600355 -0.47482717
0.071236014 -2.9989789 0.84906971
0.21171916 -2.80968 -0.25339544
0.073234677 -2.9962857 0.92493629
0.11369252 -2.9417694 -0.23598528
-0.054816723 -3.1688328 1
-0.32935524 -3.538769 0.1691848
-0.33202052 -3.5423605 0.26272434
0.24099219 -2.7555966 -0.74349689
-0.6363039 -3.9304385 -1.4756465
-0.088408709 -3.196718 -0.75321269
-0.045309067 -3.1390007 -0.61805761
0.057794094 -3.0009289 0.7730124
0.15140963 -2.8755622 -0.37558341
0.057555676 -3.0012481 0.84860384
0.18911803 -2.8250647 -0.26418734
0.059557676 -2.9985671 0.92470419
0.07048893 -2.9839282 -0.25926447
-0.07738328 -3.1819532 1
-0.34721446 -3.5433009 0.26087278
0.22119808 -2.7665606 -0.75573909
-0.66414356 -3.9444401 -1.4913213
-0.084298134 -3.1730001 -0.74244034
-0.043041945 -3.1181118 -0.609501
0.059223056 -2.9820559 0.77412856
0.20950925 -2.7821116 -0.32677495
0.043391824 -3.0031183 0.84813797
0.17596459 -2.8267403 -0.26804161
0.046598673 -2.9988518 0.92451847
0.047829509 -2.9972143 -0.2687217
-0.090919018 -3.1818087 1
-0.32340384 -3.4911118 0.083757401
-0.35471559 -3.5327697 0.26161343
0.21024549 -2.7647638 -0.75879967
-0.66430807 -3.9202924 -1.4805448
-0.72391295 -3.9990473 -1.3999388
-0.087011099 -3.1575224 -0.73705411
-0.043316841 -3.0997903 -0.60265577
0.0085302591 -3.031286 0.76924562
0.20933807 -2.7659628 -0.32108068
0.028741956 -3.0045805 0.84767216
0.14899409 -2.8456941 -0.28114593
0.034371376 -2.9971426 0.92437923
-0.10737419 -3.184428 1
-0.33364153 -3.4833901 0.083757401
-0.38051081 -3.5453174 0.2567994
-0.57755494 -3.7847495 -1.3904142
-0.088380098 -3.1423833 -0.8328172
-0.08435607 -3.137099 -0.72807705
-0.03050971 -3.0663903 -0.58639812
0.010401487 -3.0126672 0.77036166
0.19900489 -2.7650001 -0.32352114
0.011339426 -3.0114355 0.84692681
0.05118072 -2.9591174 -0.34358442
0.018194199 -3.002434 0.92405427
-0.12047362 -3.1845274 1
-0.37225652 -3.5151594 0.072229445
-0.37755251 -3.522114 0.16585827
-0.37792516 -3.5226035 0.26050246
-0.14323235 -3.1961462 -1.0893397
-0.20313096 -3.2742922 -1.0347912
-0.073350668 -3.1049755 -0.81216037
-0.073373556 -3.1050055 -0.71191835
-0.031177759 -3.0499554 -0.58040857
-0.0087196827 -3.0206556 0.76910609
0.18602693 -2.7665815 -0.32758844
-0.0017158985 -3.011518 0.84655416
0.010593057 -2.9954593 -0.36593902
0.0027304888 -3.005717 0.92377573
-0.13772726 -3.1889639 1
-0.38734865 -3.5146298 0.16585827
-0.19249082 -3.2429004 -1.129127
-0.21484423 -3.2718849 -1.0377305
-0.052249908 -3.0610566 -0.78680897
-0.070476055 -3.0846896 -0.70294142
-0.022472143 -3.0224452 -0.56757367
-0.023797274 -3.0241632 0.768269
0.1734339 -2.7684228 -0.33165586
-0.014335871 -3.0118952 0.84618151
-0.0086553097 -3.0045295 0.9236365
-0.1533215 -3.1921113 1
-0.37615585 -3.4810503 -0.018577337
-0.41569495 -3.5323186 0.15920508
-0.18875337 -3.2196915 -1.1168847
-0.20781827 -3.244252 -1.023035
-0.061682701 -3.0559909 -0.78774774
-0.061366081 -3.055583 -0.68857813
-0.022941589 -3.0060823 -0.56158388
-0.043041706 -3.0319765 0.76701337
0.15815985 -2.7727757 -0.33735013
-0.024981737 -3.0087104 0.84599519
-0.025410175 -3.0092623 0.92331153
-0.17311978 -3.1995513 1
-0.39412856 -3.4842687 -0.02212286
-0.40633059 -3.4999883 0.16585827
-0.18806911 -3.2006009 -1.107703
-0.19527316 -3.2098217 -1.0034416
-0.072191 -3.0522838 -0.78962576
-0.058695555 -3.0350101 -0.67960107
-0.012198925 -2.9754972 -0.54703772
0.15071464 -2.7669773 -0.33735013
-0.04669714 -3.0196528 0.84497035
-0.044676542 -3.0170667 0.92289376
-0.19668007 -3.2116225 1
-0.38236475 -3.4492879 -0.013005733
-0.41605759 -3.4924128 0.16585827
-0.17665315 -3.1680214 -1.0883195
-0.16205525 -3.1494577 -0.96523404
-0.053706169 -3.0116715 -0.66882873
-0.0046360493 -2.9492695 -0.53505838
0.13538241 -2.77121 -0.3430444
-0.057386398 -3.0163517 0.84478402
-0.050415754 -3.0074873 0.92298657
-0.21910071 -3.2220018 1
-0.41345978 -3.4691656 -0.02212286
-0.48622298 -3.5616975 0.1450671
-0.25900221 -3.2542419 -1.1587124
-0.1512053 -3.118041 -0.94759989
-0.047482729 -2.9869878 -0.65715861
-0.0002951622 -2.9273665 -0.52564621
0.13020933 -2.7624745 -0.34141743
-0.071795702 -3.0177073 0.84431815
-0.067284107 -3.012007 0.9226616
-0.23788571 -3.2275615 1
-0.43149567 -3.472187 -0.025668383
-0.43846965 -3.4809985 0.069001615
-0.28674865 -3.2717502 -1.1770756
-0.15057087 -3.1007347 -0.93976247
-0.28583932 -3.2706082 -0.95112395
-0.041789532 -2.9641247 -0.64638615
0.0079803467 -2.9016228 -0.51366687
-0.1028409 -3.0407946 0.76394409
-0.08950901 -3.0240521 0.84357285
-0.08747983 -3.0215037 0.9221974
-0.20148563 -3.164675 -0.38002586
-0.26246119 -3.2412491 1
-0.47073102 -3.502799 -0.038331032
-0.59375644 -3.6363797 -1.459667
-0.14595985 -3.0776379 -0.92800629
-0.16232419 -3.0980568 -0.83845079
-0.030834198 -2.933989 -0.63112521
0.069091916 -2.8093057 -0.46147144
-0.098991871 -3.0190334 0.84347969
-0.10195732 -3.0227337 0.9219653
-0.22297645 -3.1737361 -0.38802814
-0.28138208 -3.2466123 1
-0.43327713 -3.4361405 -0.018577337
-0.20322657 -3.131464 -1.0811784
-0.13575149 -3.0478113 -0.9113518
-0.10648656 -3.0115299 -0.78399205
-0.0096113682 -2.8914285 -0.60778499
0.064937234 -2.7990062 -0.45890439
-0.20128012 -3.129051 -0.5610553
-0.11849833 -3.0264215 0.84264117
-0.11144185 -3.0176735 0.92191887
-0.2340188 -3.1696389 -0.38948309
-0.3104043 -3.2643383 1
-0.467098 -3.4586003 -0.028707385
-0.22046971 -3.1352134 -1.0893397
-0.12537646 -3.0180757 -0.89469731
-0.043448687 -2.9171557 -0.72389972
0.031008363 -2.8254383 -0.56918371
0.052853107 -2.7985294 -0.46232712
-0.19372034 -3.102263 -0.54966664
-0.13303423 -3.0275087 0.84217536
-0.12343526 -3.0156844 0.92177963
-0.26501799 -3.1900885 -0.40330517
-0.32191205 -3.2601717 1
-0.21442962 -3.1112926 -1.0760772
-0.11107612 -2.9847491 -0.87510371
-0.029684305 -2.8850951 -0.70605969
0.0226897 -2.8209698 -0.57008147
0.045744896 -2.7927415 -0.46232712
-0.093755007 -2.9635417 0.76854801
-0.14713979 -3.0289049 0.84170949
-0.14130545 -3.0217612 0.92140824
-0.26621556 -3.1746984 -0.39894032
-0.27725244 -3.1882114 1
-0.27187896 -3.1816323 -0.30720103
-0.19671988 -3.0724287 -1.0515928
-0.035238981 -2.8759782 -0.70418191
0.0048797131 -2.8271716 -0.57816088
-0.2234838 -3.1049883 -0.65741813
-0.16046286 -3.0283198 0.84133685
-0.15841889 -3.0258334 0.92108327
-0.28556871 -3.1805179 -0.40548754
-0.31640887 -3.2180367 -0.32772219
-0.19194579 -3.0496089 -1.0393505
-0.086151361 -2.9217253 -0.83885562
-0.034001827 -2.8586872 -0.69667029
-0.25501585 -3.1258478 -0.67453146
-0.17252898 -3.0261381 0.8410573
-0.17685294 -3.0313649 0.92071193
-0.27766657 -3.1532276 -0.39530289
-0.31207228 -3.1948168 -0.3201977
-0.17429876 -3.010602 -1.0148661
-0.11681986 -2.9415894 -0.85844922
-0.34953904 -3.2210069 -0.95206285
-0.3813343 -3.2591822 -0.86901629
-0.23974824 -3.0891848 -0.65656257
-0.19273281 -3.0327351 0.84021884
-0.18556714 -3.0241315 0.92071193
-0.29274559 -3.152817 -0.39894032
-0.33215261 -3.2001314 -0.32635415
-0.18534946 -3.0080945 -1.0179267
-0.13667011 -2.9499986 -0.86922574
-0.39646029 -3.2600439 -0.98398697
-0.3783288 -3.2384048 -0.86003923
-0.2964797 -3.1407225 -0.69250023
-0.28588796 -3.1280816 -0.58464599
-0.20695019 -3.033874 0.83975303
-0.2061851 -3.0329609 0.92024767
-0.30090332 -3.1460018 -0.39894032
-0.33924341 -3.1917584 -0.32567
-0.18576956 -2.9920106 -1.0107853
-0.06486392 -2.8486338 -0.79966855
-0.4065721 -3.2538509 -0.98492587
-0.37340879 -3.214524 -0.84926701
-0.30857491 -3.1376402 -0.69506729
-0.31211495 -3.1418383 -0.59684813
-0.21779013 -3.0299823 0.83956665
-0.21960187 -3.032131 0.92006201
-0.3083179 -3.1373355 -0.39821279
-0.33831 -3.1729019 -0.3201977
-0.16674209 -2.9540312 -0.98630106
-0.059712172 -2.8278706 -0.78889203
-0.40589023 -3.2359252 -0.97741449
-0.44071484 -3.2769747 -0.89504969
-0.31200981 -3.1252646 -0.69164467
-0.31669402 -3.1307859 -0.59440768
-0.23592329 -3.035578 0.83882129
-0.23386955 -3.0331573 0.91982991
-0.32245588 -3.1375778 -0.40185022
-0.36598039 -3.1888819 -0.33114243
-0.22017097 -3.0004065 -0.92114854
-0.41478705 -3.2283533 -0.97741449
-0.33816624 -3.1386101 -0.70447958
-0.3383112 -3.1387799 -0.60335588
-0.25067759 -3.0361378 0.83835548
-0.25251675 -3.0382917 0.91945851
-0.32620573 -3.1246011 -0.39894032
-0.37106872 -3.1771476 -0.32909024
-0.067275524 -2.8059766 -0.88122189
-0.31128192 -3.0899606 -0.99266517
-0.38798547 -3.1792312 -0.94830704
-0.36678672 -3.1545594 -0.71902585
-0.36238408 -3.1494353 -0.61393106
-0.26676106 -3.0381455 0.83779651
-0.26861286 -3.0403008 0.91918004
-0.33232641 -3.1144531 -0.39748538
-0.35896111 -3.1454515 -0.31746161
-0.26841521 -3.0400705 0.34419125
-0.23414707 -2.9846351 -1.0260882
-0.31355095 -3.0764956 -0.98776662
-0.39968467 -3.1761417 -0.95112395
-0.39268088 -3.1680393 -0.73186088
-0.38845301 -3.1631479 -0.6261332
-0.28764272 -3.0465229 0.83686483
-0.28428173 -3.0426345 0.91890144
-0.34158754 -3.1089306 -0.39821279
-0.3720119 -3.1441278 -0.3201977
-0.3736999 -3.1277442 -1.1444297
-0.48609352 -3.2569015 -1.1278608
-0.4355402 -3.198808 -0.97271967
-0.42558074 -3.1873634 -0.74897408
-0.39280534 -3.1496994 -0.62287927
-0.30165243 -3.0449507 0.83649218
-0.30090785 -3.044095 0.91862297
-0.3909688 -3.1475887 -0.32567
-0.25714159 -2.9783125 -1.0322094
-0.83336878 -3.6365316 -1.4168656
-0.85443544 -3.6605957 -1.3041668
-0.74104762 -3.5310736 -0.96973491
-0.34447908 -3.0780771 0.75110888
-0.38169789 -3.1205919 -0.60986376
-0.31475401 -3.0441225 0.83611947
-0.31796217 -3.0477872 0.91829801
-0.23338938 -2.9350677 -1.0036442
-0.84352183 -3.6276147 -1.4168656
-0.86116195 -3.6476374 -1.3013499
-1.1650696 -3.9925959 -1.4049447
-0.33789659 -3.0536914 0.67004782
-0.88351369 -3.6730084 -1.0647135
-0.36343122 -3.0826752 0.74999279
-0.32833123 -3.042834 0.83574682
-0.33287716 -3.0479939 0.91806591
-0.26759124 -2.9576435 -1.0271084
-0.42797303 -3.1385403 -1.0563443
-0.61947846 -3.3545413 -1.0994771
-0.43534565 -3.1468558 0.57070696
-0.89534378 -3.665693 -1.1921892
-0.39246011 -3.0984848 0.66354537
-0.90697479 -3.678812 -1.0741258
-0.34722614 -3.0474648 0.83500147
-0.3478179 -3.0481319 0.91783381
-0.32715082 -3.0082691 -1.0730166
-0.38470721 -3.0727782 0.41150248
-0.39593506 -3.0853624 -1.0220554
-0.49589872 -3.1974018 -0.99337649
-0.40164304 -3.0917597 0.57814062
-0.3889935 -3.0775824 0.6652174
-0.93531275 -3.6898966 -1.0869608
-0.48021555 -3.1798239 -0.65867209
-0.37149215 -3.0579667 0.83388346
-0.36544299 -3.0511868 0.91750884
-0.37620139 -3.0632448 0.32752752
-0.77665639 -3.4924624 -1.4647679
-0.40364027 -3.0770209 0.40890855
-0.91458702 -3.6460805 -1.4511545
-0.3923111 -3.0644031 0.49675
-0.71703553 -3.4260604 -1.1623862
-0.40212464 -3.0753329 0.57953441
-0.3973937 -3.0700638 0.6652174
-0.94684172 -3.6820037 -1.0878162
-0.53043938 -3.2182415 -0.68633032
-0.38250017 -3.0534763 0.83369714
-0.38177514 -3.0526688 0.91723031
-0.39159584 -3.0636065 -0.026473641
-0.34647727 -3.0133562 0.33826637
-0.86422873 -3.5710175 -1.5341406
-0.44729018 -3.1094203 0.40015405
-0.93355584 -3.6477702 -1.458992
-0.59579802 -3.2738349 -1.0591023
-0.96626067 -3.6839781 -1.0946617
-0.49102712 -3.1578422 -0.65460479
-0.40241504 -3.0597389 0.83285868
-0.39767694 -3.054493 0.91695178
-0.43041611 -3.090739 -0.039704084
-0.43590069 -3.0968111 0.3153075
-0.82905126 -3.5123584 -1.4943533
-0.4677372 -3.1148617 0.39723587
-0.94491744 -3.639828 -1.4599717
-0.49078631 -3.1402192 -0.96896386
-1.0276313 -3.7308247 -1.1305995
-0.58324718 -3.2419393 -0.70992088
-0.41747832 -3.0595698 0.83239281
-0.44911742 -3.0943773 -0.52087903
-0.41541886 -3.0573041 0.91662681
-0.47635865 -3.1243467 -0.055691123
-0.44485569 -3.089689 0.22740012
-0.43907309 -3.0833273 0.31678873
-0.75173378 -3.408258 -1.4178395
-0.46959329 -3.0998154 0.39885706
-0.63733006 -3.2831891 -1.1954584
-0.48627162 -3.1180487 -0.95863557
-1.0533748 -3.7380188 -1.0141599
-0.42851806 -3.0549111 0.83220649
-0.47874451 -3.1098199 -0.53398347
-0.43724966 -3.0644569 0.91616261
-0.47711897 -3.1080427 -0.052383423
-0.4485383 -3.0767977 0.050307035
-0.44578266 -3.0737851 0.14139724
-0.45725417 -3.0863261 0.2261526
-0.44351077 -3.0713017 0.31789964
-0.914958 -3.5666645 -1.5525038
-0.47278404 -3.0863087 -1.0514457
-0.55938077 -3.1803832 -1.0093384
-0.49030399 -3.1053414 0.7428776
-1.0341487 -3.696147 -0.99463665
-0.44767118 -3.0590274 0.83146113
-0.44967127 -3.0612001 0.91602331
-0.48688745 -3.10163 -0.43385923
-0.45436525 -3.0662994 -0.039152861
-0.475281 -3.0890212 0.04321605
-0.46207881 -3.0746789 0.13863051
-0.90151167 -3.5322516 -1.5321002
-0.99072456 -3.6285589 -1.4727073
-1.1981285 -3.8524566 -1.5022836
-0.50692582 -3.1062868 0.74204051
-1.0655966 -3.7093849 -1.0084655
-0.48180819 -3.0791717 0.82969099
-0.97730851 -3.6140759 -0.82998824
-0.46345472 -3.0593584 0.91583765
-0.46877456 -3.0651014 -0.32224989
-0.49277902 -3.0910146 -0.051832199
-0.50080943 -3.0996838 0.036631525
-1.1441214 -3.7941546 0.016577661
-0.90375614 -3.5160773 -1.525979
-1.0109894 -3.6311512 -1.4815245
-1.1963193 -3.8300326 -1.4928942
-0.81507063 -3.420907 -0.8384496
-0.496557 -3.0791039 0.82922512
-0.98431587 -3.6025274 -0.82844663
-0.48223948 -3.0637395 0.91546631
-1.0291612 -3.6506519 -0.7350353
-0.51767159 -3.1017625 -0.34413922
-0.5163033 -3.1002941 -0.24717569
-0.4964509 -3.0789902 -0.14264762
-0.49026728 -3.0723543 -0.047422051
-0.98917079 -3.6077375 -0.038900137
-1.1928556 -3.8263154 0.0045187473
-0.72996473 -3.3111875 -1.3668301
-1.0437868 -3.6458418 -1.5001383
-1.129771 -3.7375338 -1.4328017
-0.71831441 -3.2987638 -0.76930451
-0.51726079 -3.0843635 0.82838666
-0.99057508 -3.5890975 -0.82613409
-0.50016952 -3.0661376 0.91514134
-1.0903332 -3.6954782 -0.76413441
-0.54928732 -3.118516 -0.35645187
-0.52477407 -3.0923755 -0.24717569
-0.5139966 -3.0808828 -0.1468178
-0.96988368 -3.5670328 -0.13659251
-1.0085521 -3.608268 -0.042127967
-1.1928985 -3.804852 0.0078452826
-0.9279995 -3.5027759 -1.5300596
-1.0563617 -3.6388001 -1.5020976
-0.56564355 -3.1187904 -0.66436636
-0.52430964 -3.0749893 0.82847983
-1.0018449 -3.5810294 -0.82690489
-0.52499986 -3.0757208 0.91458428
-1.1045063 -3.6898186 -0.76631677
-1.1021404 -3.6873116 -0.64511693
-0.9886179 -3.5670128 -0.24863732
-0.99442482 -3.5731664 -0.14216399
-1.0306368 -3.6115398 -0.046278
-1.1740401 -3.7635031 0.016993463
-0.91996527 -3.4748504 -1.5147572
-1.0581179 -3.620331 -1.49524
-1.175 -3.743413 -1.4515805
-0.56914043 -3.1054165 -0.66111255
-1.1503432 -3.7174485 -0.91092706
-0.54578567 -3.0808232 0.91416645
-1.113544 -3.6786971 -0.76558924
-1.1318657 -3.6979909 -0.65537751
-1.13269 -3.6988587 -0.53720164
-0.96727109 -3.5246656 -0.34460676
-1.0157638 -3.5757303 -0.25580382
-1.013706 -3.5735636 -0.14570951
-1.0500929 -3.6118803 -0.04950583
-1.212882 -3.7833047 0.0082610846
-0.50785661 -3.0408821 0.31382632
-0.87085009 -3.4052231 -1.4647679
-1.1572556 -3.7050343 0.24905765
-1.0676589 -3.6112437 -1.49524
-1.166609 -3.7148254 -1.4374967
-0.55822492 -3.0779653 -0.64891052
-1.2047892 -3.7547927 -0.93790674
-1.1181107 -3.664057 -0.76267934
-1.1390407 -3.6859667 -0.65400946
-1.2275367 -3.7786047 -0.57881689
-1.0187299 -3.5600247 -0.36367059
-1.0344687 -3.5765002 -0.25966275
-1.0311272 -3.5730021 -0.14874852
-1.0569205 -3.6000028 -0.048583627
-1.2066896 -3.7567821 0.013251007
-0.50481987 -3.0220604 0.31678873
-0.6263454 -3.1320384 -1.2474685
-1.2360089 -3.7662368 0.23284566
-1.0898159 -3.6141603 -1.5050368
-1.166496 -3.6939263 0.35785526
-1.1329501 -3.6590304 -1.4036946
-1.1966221 -3.7252648 0.46059614
-1.2127702 -3.742063 0.56749511
-0.80544281 -3.3183434 0.71692824
-1.1478198 -3.6744986 -1.0222945
-1.1955283 -3.7241271 0.78497088
-0.93777776 -3.4560039 -0.7706331
-1.137387 -3.663646 -0.7677716
-1.1545582 -3.6815081 -0.65674555
-1.259145 -3.7903039 -0.58906066
-1.0180578 -3.5395145 -0.35890472
-1.0577564 -3.580811 -0.26517546
-1.0410805 -3.5634639 -0.14874852
-1.0656097 -3.58898 -0.048122406
-0.81998205 -3.3334677 0.13508725
-1.1382418 -3.664535 0.14681906
-0.80954027 -3.3042874 -1.3964157
-1.243824 -3.753217 0.23349416
-1.0998983 -3.6044376 -1.5050368
-1.216763 -3.7252431 0.34978318
-1.1726406 -3.6796327 -1.4262292
-1.2346766 -3.7437608 0.45595014
-1.2343309 -3.7434034 0.56600881
-1.1724913 -3.6794786 0.68093389
-1.2355831 -3.7446978 -1.0719166
-1.2462387 -3.755713 0.78226906
-1.255842 -3.76564 0.89128065
-1.2408879 -3.7501817 -0.82015014
-1.1635451 -3.6702306 -0.65606141
-1.2473845 -3.7568974 -0.57817674
-1.0013573 -3.5025733 -0.34698975
-1.0717444 -3.5753343 -0.26682937
-1.0510042 -3.5538945 -0.14874852
-0.53674436 -3.0222921 0.22448933
-1.2427728 -3.75213 0.12126809
-0.70874119 -3.1815724 -1.3025587
-1.2590556 -3.7466836 0.23252141
-1.1129398 -3.5966389 -1.5069959
-1.2001367 -3.6861804 0.35535014
-1.2167618 -3.7032528 -1.4515805
-1.2318871 -3.7187846 0.45827311
-1.2565136 -3.7440732 0.56452256
-1.1777804 -3.663223 0.68149197
-1.4072676 -3.8988807 -1.1744142
-1.2643168 -3.7520862 0.78180325
-1.2655892 -3.7533929 0.89132702
-1.2517312 -3.7391622 -0.69641984
-1.2360253 -3.7230341 -0.56729281
-1.0529203 -3.5350058 -0.36545789
-1.0876217 -3.5706401 -0.26903439
-1.0263493 -3.5077205 -0.13557947
-1.2346733 -3.7216456 0.12645233
-0.67966509 -3.135428 -1.2709327
-1.2537808 -3.7214906 0.23608804
-1.1260722 -3.5911245 -1.5099349
-1.1987858 -3.6653514 0.35757691
-1.2722728 -3.7403677 -1.4863217
-1.2264302 -3.6935711 0.46082842
-1.2510936 -3.7187476 0.56656617
-1.1288106 -3.59392 0.68735147
-1.4316995 -3.9031119 -1.1833622
-1.257473 -3.7252598 0.7829212
-1.1950355 -3.6615229 -0.9070729
-1.271328 -3.739403 0.89146632
-0.60219836 -3.0563493 -0.45204616
-1.2866137 -3.7550068 -0.70941663
-1.2060938 -3.6728115 -0.54808581
-1.0635459 -3.5272973 -0.3660537
-1.0297487 -3.4927967 -0.24147069
-0.50992537 -2.9621558 0.15015846
-1.4101598 -3.881124 -0.035816193
-1.0517499 -3.4957414 -1.5780087
-1.1495464 -3.5949478 -1.5207117
-0.53329659 -2.9698148 0.49285316
-1.2071276 -3.6533589 -1.4290462
-0.56876898 -3.0057983 0.74413323
-1.4401221 -3.8897121 -1.1817355
-1.2118015 -3.6581001 0.78664786
-1.2350638 -3.6816978 -0.9248023
-1.2789948 -3.7262621 0.89155912
-1.2136989 -3.6600249 -0.54680526
-1.0720141 -3.5162978 -0.36545789
-0.54255366 -2.9792051 0.14185834
-1.4197052 -3.8690007 -0.035400271
-1.0706122 -3.4964447 -1.58617
-1.1884782 -3.6153023 -1.5442238
-1.2055757 -3.6325436 -1.4205954
-0.49641323 -2.9174149 0.75208551
-1.4427421 -3.8717053 -1.1768546
-1.2486849 -3.6760154 -0.92711473
-1.2705474 -3.6980617 0.89216262
-1.274282 -3.7018278 -0.81578517
-0.58185196 -3.0035725 -0.33456254
-0.57895279 -3.000649 -0.23757219
-0.57711625 -2.9987969 -0.14205182
-1.0512919 -3.4769619 -0.24257326
-1.1470706 -3.5735464 -0.17002177
-0.54060292 -2.9619765 0.14508617
-1.3363128 -3.7643805 -0.0071243048
-1.0851851 -3.4916532 -1.5902507
-1.207185 -3.6139088 -1.5510814
-1.19451 -3.6012073 -1.4046335
-1.4652472 -3.8725121 -1.184176
-1.2498357 -3.6566489 -0.92171884
-1.3056941 -3.7126245 -0.82742488
-1.2883015 -3.6951952 -0.69436789
-0.60852456 -3.0139935 -0.24781597
-1.1655099 -3.5721464 -0.28502142
-1.1665919 -3.5732307 -0.17356718
-0.54726458 -2.9526048 0.14554733
-1.3192286 -3.7261875 0.0011920929
-1.0924442 -3.4795187 -1.5882103
-1.2185011 -3.6050484 -1.5520611
-1.2258224 -3.6123393 -1.4205954
-1.6104903 -3.9953992 -1.5593495
-1.2705119 -3.6568418 -0.92788565
-1.3398461 -3.7258863 -0.84051955
-1.3532364 -3.7392206 -0.72241342
-1.2504294 -3.6368432 -0.55000639
-1.1832321 -3.5699267 -0.40179861
-1.190444 -3.5771086 -0.29108536
-1.1888838 -3.5755548 -0.17812574
-0.5580287 -2.9473367 0.14462501
-1.3629303 -3.7488739 -0.008787632
-1.1052358 -3.4739602 -1.5912709
-1.2354317 -3.6028447 -1.5579393
-1.3093836 -3.6760521 -1.4759932
-0.50864959 -2.8833828 0.5872004
-1.6160622 -3.9796414 -1.5557587
-1.3851137 -3.7510192 -1.1207249
-1.2801609 -3.6471236 -0.92788565
-1.3483756 -3.7146511 -0.83979201
-1.3564515 -3.7226458 -0.71899319
-1.312535 -3.6791716 -0.57497549
-1.1858394 -3.5537519 -0.3988198
-1.2135198 -3.5811536 -0.29659808
-1.2010417 -3.5688012 -0.17913866
-0.54897904 -2.9233062 0.15015846
-1.3839743 -3.7498913 -0.012114167
-1.1203184 -3.4684703 -1.5953517
-1.2410619 -3.5872076 -1.5540206
-1.3504474 -3.6947756 -1.4985278
-0.55369639 -2.9112637 0.58116055
-1.6304617 -3.9701369 -1.5575542
-1.2988057 -3.6439919 -0.93251085
-1.3487227 -3.6930795 -0.83397222
-1.3500309 -3.694366 -0.71010065
-1.3220401 -3.6668403 -0.57433534
-1.2275891 -3.5739589 -0.41252208
-1.2418714 -3.5880036 -0.3037647
-1.2142916 -3.5608821 -0.18015182
-0.56704569 -2.924391 0.14693063
-1.3880901 -3.7317929 -0.010035038
-1.1380191 -3.4676166 -1.602493
-1.2704532 -3.5970795 -1.5696955
-1.3627336 -3.6872895 -1.5004058
-1.6282575 -3.9468565 -1.5485771
-1.5458992 -3.8663456 -1.2077668
-1.3255715 -3.6509614 -0.94253182
-1.3558133 -3.6805246 -0.83251715
-1.3490391 -3.6739023 -0.70462835
-1.3384924 -3.6635921 -0.57753658
-1.25474 -3.5817189 -0.42026687
-1.2568147 -3.5837471 -0.30596995
-1.2319565 -3.5594466 -0.18319082
-0.58148217 -2.9235659 0.14462501
-1.4021571 -3.7258286 -0.011282563
-1.1562793 -3.4661331 -1.6096342
-1.2717273 -3.5782838 -1.5628378
-1.3641787 -3.6680946 -1.4938331
-1.6381013 -3.9341938 -1.5476792
-1.3132658 -3.6186359 -0.92942727
-1.342051 -3.6465991 -0.81942272
-1.3310003 -3.635864 -0.69026363
-1.3079579 -3.6134796 -0.55832946
-1.2811537 -3.587441 -0.42741585
-1.2723176 -3.5788572 -0.30817497
-1.2474186 -3.5546694 -0.18521678
-0.59777355 -2.9235787 0.14185834
-1.4210091 -3.7233019 -0.013777494
-1.1696081 -3.4597869 -1.6126947
-1.2791865 -3.5655684 -1.5608783
-1.3769696 -3.6599634 -1.4957111
-1.6427569 -3.9165418 -1.543191
-1.3353102 -3.6197476 -0.93636489
-1.3602755 -3.6438479 -0.82378757
-1.3343878 -3.6188571 -0.68684328
-1.3125837 -3.5978084 -0.55576849
-1.2980185 -3.5837479 -0.43039453
-1.2933531 -3.5792441 -0.31258512
-1.2545283 -3.5417645 -0.18420374
-0.60428834 -2.9140542 0.14231944
-1.4342468 -3.715256 -0.014609098
-1.1767228 -3.4474323 -1.6106544
-1.301698 -3.5673211 -1.5706751
-1.4050353 -3.6664526 -1.5088563
-1.655076 -3.906317 -1.5440886
-0.58235812 -2.8772578 0.6661464
-1.3280964 -3.5926449 -0.92634392
-1.3946493 -3.6564894 -0.83688211
-1.3716087 -3.6343865 -0.70052409
-1.323981 -3.5886974 -0.55640888
-1.3135159 -3.5786581 -0.43277764
-1.314424 -3.5795293 -0.31699538
-1.2699673 -3.5368819 -0.18622971
-0.60796046 -2.9018183 0.14370281
-1.4545271 -3.7139304 -0.017519832
-1.1857505 -3.4379933 -1.6106544
-1.3136048 -3.5599177 -1.5726345
-1.4134343 -3.6551168 -1.5079174
-1.6654634 -3.8954566 -1.5440886
-0.59978485 -2.879205 0.66484582
-1.3963187 -3.6387951 -0.96026123
-1.4083412 -3.6502597 -0.83906448
-1.4043119 -3.6464176 -0.71215272
-1.3252001 -3.5709748 -0.55256736
-1.3256955 -3.5714474 -0.43396902
-1.3307993 -3.5763144 -0.31975174
-1.0902338 -3.3469067 -0.11785185
-0.62241387 -2.9007845 0.14139724
-1.4671762 -3.7063661 -0.018351555
-1.1952784 -3.4279706 -1.6106544
-1.3285775 -3.5542901 -1.5765531
-1.4364612 -3.6565247 -1.5173068
-1.6842098 -3.8913009 -1.5494747
-1.5712411 -3.7842474 -1.0550752
-1.3874326 -3.6100633 -0.8223325
-1.4199507 -3.6408787 -0.71488905
-1.3378956 -3.5631201 -0.55384779
-1.3481143 -3.5728037 -0.43933082
-1.3379705 -3.5631909 -0.31864917
-0.65007305 -2.9113128 0.044229031
-0.66133404 -2.9219842 0.13125265
-1.4789658 -3.6968036 -0.018767357
-1.2135429 -3.4261718 -1.6177959
-1.3422794 -3.5474024 -1.5794923
-1.4479611 -3.6469219 -1.5182457
-1.6873538 -3.8723564 -1.5440886
-1.679934 -3.8653693 -1.111347
-1.4409029 -3.6402752 -0.84561193
-1.4383249 -3.6378477 -0.71899319
-1.3629909 -3.566906 -0.56089044
-1.3761353 -3.5792842 -0.44707561
-1.3506911 -3.5553236 -0.31975174
-0.67203593 -2.9162383 0.039164007
-0.63099122 -2.8775868 0.14370281
-1.4950035 -3.6912215 -0.020430684
-1.2275302 -3.4213266 -1.6218765
-1.3579674 -3.5434303 -1.5843904
-1.4472651 -3.627023 -1.5107341
-1.7015541 -3.8650658 -1.5467815
-0.59116554 -2.8256187 0.7518065
-1.6753793 -3.8405631 -1.1028676
-1.445061 -3.6249597 -0.84270203
-1.4630086 -3.6417606 -0.72651768
-1.3792877 -3.5633886 -0.56409156
-1.3967035 -3.5796916 -0.45184159
-1.3389852 -3.5256608 -0.31148267
-1.074986 -3.2785285 -0.10265672
-0.6596415 -2.8897197 0.13678604
-1.506181 -3.6821747 -0.020846486
-1.2375319 -3.4106073 -1.6218765
-1.3696501 -3.5334651 -1.5853703
-1.4721732 -3.6288021 -1.5210626
-1.7221861 -3.8612912 -1.5530655
-1.8403461 -3.9711692 -1.4822767
-0.6021173 -2.81973 0.75152743
-1.7043376 -3.8446937 -1.1128888
-1.4707437 -3.6274726 -0.85070419
-1.4668584 -3.6238599 -0.72309744
-1.4050229 -3.5663583 -0.57113421
-1.4226091 -3.5827119 -0.45839489
-1.4014237 -3.5630116 -0.33187973
-1.4288132 -3.5884812 -0.22573698
-0.75766778 -2.9643779 0.10773557
-1.5371027 -3.6891806 -0.026668072
-1.2578194 -3.4114971 -1.6310582
-1.3827736 -3.5270038 -1.5883093
-1.0149124 -3.1869564 -1.1830428
-0.55170465 -2.7587717 0.67580712
-1.8522527 -3.9609859 -1.4831324
-0.57998395 -2.7849126 0.7543177
-1.7077656 -3.8274233 -1.1090343
-1.4967213 -3.6323359 -0.85943401
-1.4846892 -3.6212137 -0.7272017
-1.4213593 -3.5626719 -0.57433534
-1.4348409 -3.5751343 -0.45958626
-1.4277346 -3.5685651 -0.33849514
-1.4453623 -3.5848601 -0.22826958
-1.459796 -3.5982025 -0.11636806
-1.5396636 -3.6720312 -0.024588943
-1.2748647 -3.4082303 -1.6371791
-1.3990006 -3.5222592 -1.5932076
-0.9833374 -3.1404388 -1.1539357
-0.96933675 -3.127578 -1.0252166
-0.55470252 -2.7467027 0.67636442
-1.8900464 -3.9733248 -1.5002458
-0.56983137 -2.7605999 0.75599188
-1.6913323 -3.7907898 -1.0936174
-1.5274379 -3.6402395 -0.87034607
-1.5100157 -3.6242359 -0.73472607
-1.4494181 -3.5685718 -0.58265841
-1.4687009 -3.5862849 -0.46971405
-1.4546614 -3.5733881 -0.3451103
-1.471024 -3.5884187 -0.23384106
-1.4870245 -3.6031165 -0.12190151
-1.5686541 -3.6780999 -0.029994607
-1.2875867 -3.4019799 -1.6402397
-1.419838 -3.522742 -1.6020248
-0.52433944 -2.7050393 0.5195744
-0.99015164 -3.1303844 -1.1529968
-0.99457383 -3.1344225 -1.0368867
-1.9033012 -3.9642048 -1.5019569
-0.58861065 -2.7637269 0.75487578
-1.7095537 -3.7872889 -1.0982425
-1.5645514 -3.6548836 -0.88489568
-1.5376091 -3.6302819 -0.74361861
-1.4783928 -3.57621 -0.59162164
-1.486599 -3.5837033 -0.47328854
-1.47258 -3.5709021 -0.348418
-1.4833269 -3.5807154 -0.2348541
-1.5094473 -3.6045666 -0.12605155
-1.5942557 -3.6820073 -0.034568667
-1.3153622 -3.4072421 -1.6545224
-1.4224257 -3.5043554 -1.5961468
-0.97302961 -3.0967247 -1.1342177
-1.0128913 -3.1328819 -1.0431705
-1.030051 -3.1484468 -0.93636405
-0.51663566 -2.6827469 0.76240945
-1.7070971 -3.7625701 -1.0905342
-1.572566 -3.640542 -0.88344073
-1.5441256 -3.6147447 -0.74156642
-1.4959235 -3.5710225 -0.59482288
-1.5155208 -3.5887985 -0.48103333
-1.4973159 -3.5722854 -0.35393071
-1.496721 -3.5717459 -0.23586702
-1.5330281 -3.6046786 -0.1302017
-1.6036708 -3.668756 -0.034152865
-1.1216257 -3.2136858 -1.4923129
-1.4438181 -3.5040948 -1.6049638
-0.97230506 -3.0790954 -1.1276453
-1.0148249 -3.1174204 -1.0386822
-1.0628407 -3.1606998 -0.95176601
-0.49415565 -2.648114 0.76519972
-1.6737766 -3.7113683 -1.0658669
-1.5661228 -3.6143343 -0.87471104
-1.5542078 -3.6035948 -0.74156642
-1.5312018 -3.5828583 -0.60634696
-1.5311944 -3.5828516 -0.4834162
-1.5229733 -3.5754416 -0.35999477
-1.5196033 -3.5724039 -0.24042559
-1.5329595 -3.5844426 -0.12697375
-1.6197348 -3.6626577 -0.035816193
-0.93650007 -3.0310726 -1.3382649
-1.4569092 -3.4973536 -1.607903
-0.97761106 -3.0679076 -1.1257675
-0.49143338 -2.6322975 0.6088044
-1.0095639 -3.0965369 -1.029705
-0.4590044 -2.6032417 0.69197035
-1.0602477 -3.1419492 -0.94492066
-0.49932885 -2.6393719 0.76533926
-1.1188993 -3.1945004 -0.86448085
-1.6354795 -3.6573505 -1.0388875
-1.6186576 -3.6422784 -0.89726269
-1.5650976 -3.5942891 -0.74225068
-1.5744987 -3.6027126 -0.62171268
-1.5605302 -3.5901968 -0.4917568
-1.5395393 -3.5713892 -0.36275113
-1.5390875 -3.5709846 -0.24397111
-1.519202 -3.5531673 -0.11959589
-1.6337705 -3.6558194 -0.037063599
-1.3558855 -3.3878853 -1.6647243
-1.4549015 -3.4760435 -1.5990858
-0.98202062 -3.0550177 -1.1229506
-1.0073411 -3.0775616 -1.0225234
-1.0742469 -3.1371307 -0.94834352
-1.1126521 -3.1713245 -0.85553265
-1.5974522 -3.6029623 -1.0119078
-1.635782 -3.637089 -0.90090024
-1.5933616 -3.5993204 -0.75114322
-1.5887871 -3.5952475 -0.62363327
-1.5847933 -3.5916917 -0.4977144
-1.5710227 -3.5794311 -0.37102032
-1.5605919 -3.5701439 -0.24802315
-1.5639737 -3.5731549 -0.1306628
-1.6629748 -3.6612997 -0.042469382
-1.3686004 -3.381335 -1.6677847
-1.4849048 -3.4842687 -1.6147606
-0.51089621 -2.6222353 0.52875984
-0.97930622 -3.0367954 -1.1154389
-1.005904 -3.0603354 -1.0162394
-0.48136401 -2.5960982 0.69085562
-1.0782938 -3.124403 -0.94577646
-1.1318066 -3.1717639 -0.8620404
-1.6221414 -3.6057281 -1.0203872
-1.6383953 -3.6201134 -0.89726269
-1.6126902 -3.5973635 -0.75593138
-1.6124408 -3.5971427 -0.63003564
-1.6085446 -3.5936944 -0.50367188
-1.5919578 -3.5790145 -0.37543046
-1.5844707 -3.5723882 -0.25308824
-1.6112638 -3.596101 -0.1426518
-1.6916795 -3.6672719 -0.047875047
-1.1213691 -3.1441212 -1.4647679
-0.99466515 -3.0327308 -1.1201336
-0.50042582 -2.5982249 0.61066282
-1.0066562 -3.0432725 -1.0108533
-0.53798699 -2.6312466 0.68472475
-1.0805228 -3.1082118 -0.94149804
-0.66117358 -2.7395446 0.75222498
-1.1286318 -3.150506 -0.85471928
-1.5897861 -3.5559254 -0.99649096
-1.6868322 -3.6412425 -0.91690481
-1.643034 -3.6027377 -0.76550794
-1.6429458 -3.6026602 -0.63899899
-1.6348884 -3.5955768 -0.51022506
-1.6183627 -3.5810483 -0.38149452
-1.6080492 -3.5719812 -0.25764668
-1.6466899 -3.6059518 -0.15049088
-1.7054324 -3.6575949 -0.048706651
-1.8850858 -3.8155353 0.025359273
-1.2771635 -3.2638936 -1.5810692
-0.49498248 -2.5803502 0.53432679
-1.029057 -3.0470748 -1.1389127
-0.64604473 -2.7123625 0.58905882
-1.0064108 -3.0272844 -1.0054672
-0.66605258 -2.7298472 0.66967624
-1.073571 -3.0859752 -0.93208587
-1.1298993 -3.1352003 -0.85065174
-1.1211019 -3.127512 -0.7313199
-1.7371137 -3.6658411 -0.93800151
-1.6666718 -3.6042824 -0.77234828
-1.6609924 -3.599319 -0.64284039
-1.6558542 -3.5948288 -0.51499104
-1.6422613 -3.5829501 -0.38700724
-1.6392975 -3.5803602 -0.26524425
-1.6635125 -3.6015215 -0.15279639
-1.7298117 -3.6594598 -0.052864909
-1.933681 -3.83762 0.015731335
-0.85621881 -2.8802485 -1.2433877
-0.98802495 -2.994705 -1.1041718
-1.0321932 -3.0330591 -1.0171373
-1.0833597 -3.0774903 -0.93294144
-1.1370976 -3.1241548 -0.84983838
-1.1714585 -3.1539927 -0.75444531
-1.7656426 -3.6699629 -0.94745874
-1.6909115 -3.6050689 -0.77918875
-1.6881931 -3.6027083 -0.65052307
-1.6903803 -3.6046078 -0.52511883
-1.6740174 -3.5903986 -0.39527643
-1.6609585 -3.5790586 -0.26929617
-1.679431 -3.5950994 -0.15464091
-1.7548051 -3.660552 -0.057023048
-1.9325898 -3.8149345 0.018693864
-0.68817091 -2.7195492 -1.1056626
-0.98279166 -2.9737692 -1.0947824
-1.0133872 -3.0001695 -0.99918306
-1.0862811 -3.0630674 -0.92951882
-1.1359572 -3.1059315 -0.84414411
-1.1661224 -3.1319604 -0.74673676
-2.0918469 -3.930743 -1.1104138
-1.7208819 -3.6106472 -0.78876531
-1.7125814 -3.6034849 -0.65692544
-1.7062109 -3.5979879 -0.52750182
-1.6912994 -3.5851212 -0.39803267
-1.6841109 -3.5789185 -0.27385473
-1.7100778 -3.6013246 -0.16109657
-1.7724349 -3.6551309 -0.059102297
-1.9254415 -3.7871561 0.02313751
-0.70418167 -2.7194023 -1.1128039
-0.99175549 -2.9660571 -1.0957212
-1.0156629 -2.9865625 -0.99559236
-1.0859365 -3.0468369 -0.92438483
-1.1356509 -3.0894773 -0.8392632
-1.1770163 -3.1249568 -0.74827862
-1.2877839 -3.2199633 -0.69138646
-1.7532167 -3.6191695 -0.79970992
-1.7450817 -3.6121919 -0.66716921
-1.7374213 -3.6056216 -0.53643811
-1.7124083 -3.5841677 -0.40244293
-1.7096815 -3.5818288 -0.27942622
-1.7328551 -3.6017051 -0.16524661
-1.793956 -3.6541119 -0.062428832
-1.9280155 -3.7690959 0.024989009
-0.68436027 -2.6869946 -1.0913801
-0.98008537 -2.9389434 -1.0816369
-1.0201426 -2.9730709 -0.99289918
-1.0933208 -3.0354166 -0.92352927
-1.1348171 -3.0707703 -0.83356893
-1.166368 -3.0976508 -0.73748684
-1.2574098 -3.1752157 -0.67101717
-1.7967746 -3.6347382 -0.8154428
-1.7701361 -3.6120429 -0.67357159
-1.758204 -3.6018772 -0.54060829
-1.7200201 -3.5693457 -0.40134037
-1.7349403 -3.5820572 -0.2844913
-1.7582657 -3.6019297 -0.16985786
-1.8166397 -3.6516626 -0.065755486
-1.9361739 -3.7535024 0.025729656
-0.76858568 -2.7446115 -1.151571
-0.98356223 -2.9266672 -1.0788202
-1.0223076 -2.9594791 -0.98930848
-1.101126 -3.0262277 -0.92352927
-1.14691 -3.0650003 -0.83600938
-1.1743577 -3.0882447 -0.73748684
-1.2713161 -3.1703551 -0.67392707
-1.8336048 -3.6465364 -0.82843959
-1.7970002 -3.6155374 -0.68125439
-1.7909982 -3.6104546 -0.55014038
-1.7748873 -3.5968108 -0.41842997
-1.7547002 -3.579715 -0.28803694
-1.7870553 -3.6071153 -0.17585242
-1.8486631 -3.6592886 -0.071992755
-1.9506054 -3.7456198 0.024618745
-0.72197294 -2.6904902 -1.1097434
-0.9414928 -2.8752122 -1.0440793
-1.0234973 -2.9442174 -0.98482001
-1.0955303 -3.004832 -0.91497254
-1.1538696 -3.0539234 -0.83519578
-1.1827884 -3.078258 -0.73748684
-1.2686002 -3.1504672 -0.66810727
-1.8596044 -3.6477864 -0.83596408
-1.8418789 -3.6328707 -0.69661999
-1.8332045 -3.6255713 -0.56324673
-1.8246303 -3.6183562 -0.43331432
-1.7839172 -3.5840969 -0.29462147
-1.8134928 -3.6089842 -0.18092465
-1.8708596 -3.6572573 -0.075319409
-1.9565864 -3.7293947 0.025729656
-0.82640076 -2.7640767 -1.1852372
-0.95153284 -2.8687406 -1.0459573
-1.0214357 -2.9272091 -0.97853589
-1.0893791 -2.9840388 -0.90641594
-1.1491163 -3.0340047 -0.82787466
-1.175149 -3.055779 -0.72900736
-1.2696011 -3.1347814 -0.66446984
-1.900938 -3.6628485 -0.85101295
-1.8688939 -3.6360457 -0.70430279
-1.8735116 -3.6399081 -0.5757575
-1.8577569 -3.6267304 -0.44213474
-1.8170929 -3.5927181 -0.30272543
-1.8334455 -3.606396 -0.18415248
-1.8835075 -3.6482689 -0.076151013
-1.9754922 -3.7252076 0.023507774
-0.76369619 -2.6969097 -1.1311672
-0.92731953 -2.8328972 -1.1386371
-0.95248389 -2.8538113 -1.0412624
-1.0348589 -2.9222734 -0.98212695
-1.0988727 -2.9754751 -0.90727162
-1.1531608 -3.0205941 -0.82543421
-1.1806388 -3.043431 -0.72746575
-1.2695806 -3.1173506 -0.66010487
-1.6697934 -3.4499676 -0.73677826
-1.9081857 -3.6480958 -0.71710753
-1.8954177 -3.6374843 -0.58052349
-1.8826611 -3.6268821 -0.44764745
-1.839009 -3.5906029 -0.30677748
-1.8614609 -3.6092627 -0.18968594
-1.9177659 -3.6560578 -0.082804203
-1.9934776 -3.7189817 0.021656215
-0.78588986 -2.6997802 -1.1423893
-0.94209361 -2.8287277 -1.1435356
-0.98647857 -2.8653681 -1.0591023
-1.0335579 -2.9042325 -0.97584307
-1.0948482 -2.9548283 -0.89957058
-1.1519692 -3.0019822 -0.8197397
-1.1836929 -3.0281706 -0.72438228
-1.2699523 -3.0993783 -0.65574002
-1.3566825 -3.1709752 -0.58423734
-1.9335461 -3.6471817 -0.72350979
-1.9223266 -3.6379201 -0.58707666
-1.9170609 -3.6335731 -0.45646787
-1.8644876 -3.5901732 -0.31184256
-1.8870888 -3.6088309 -0.19429708
-1.9345748 -3.6480312 -0.084467411
-2.0226483 -3.7207367 0.017212629
-0.8250227 -2.7171988 -1.1668737
-0.9699316 -2.8360589 -1.1582305
-0.9901135 -2.852613 -1.0562856
-1.0427923 -2.8958223 -0.97674072
-1.1364045 -2.9726067 -0.92010665
-1.1643665 -2.9955425 -0.82218015
-1.1848001 -3.0123029 -0.72052813
-1.2798576 -3.0902729 -0.65646756
-1.3784494 -3.1711419 -0.59039366
-1.9642384 -3.6516299 -0.73247313
-1.9605272 -3.6485858 -0.59839594
-1.9405787 -3.6322234 -0.46142924
-1.8969305 -3.5964212 -0.31944001
-1.9242356 -3.618818 -0.20259714
-1.9674492 -3.6542635 -0.090704799
-1.9434047 -3.6345413 0.039060593
-0.76922131 -2.6577179 -1.1189251
-0.94200945 -2.7985904 -1.1327591
-0.9960084 -2.8426151 -1.0553467
-1.052954 -2.8890424 -0.97853589
-1.1230071 -2.9461558 -0.90727162
-1.1649735 -2.9803705 -0.81811285
-1.1939669 -3.0040088 -0.72129893
-1.2719417 -3.0675807 -0.64846528
-1.3866563 -3.1611063 -0.59039366
-1.9944277 -3.6566162 -0.74143636
-1.9775469 -3.6428535 -0.60137475
-1.9650517 -3.6326663 -0.46694207
-1.903398 -3.5824008 -0.31842709
-1.9533768 -3.6231477 -0.2085917
-1.9952819 -3.6573126 -0.09569478
-0.86184812 -2.7183068 -1.184217
-0.96443391 -2.8014088 -1.1435356
-1.0022953 -2.8320792 -1.0544078
-1.0538151 -2.8738141 -0.97404754
-1.1211579 -2.9283667 -0.90128195
-1.1702247 -2.9681144 -0.81648588
-1.1935282 -2.9869919 -0.71667385
-1.2774107 -3.0549428 -0.64701033
-1.3909328 -3.146904 -0.58834147
-2.0208344 -3.6571705 -0.74847901
-2.0010667 -3.6411574 -0.60673642
-1.9990897 -3.6395557 -0.47576249
-1.9254036 -3.5798647 -0.32247901
-1.9755809 -3.620512 -0.21228075
-2.0206962 -3.6570585 -0.099853039
-0.90127945 -2.7351913 -1.2087014
-0.94751406 -2.7724047 -1.1259012
-1.0388098 -2.8458869 -1.0741255
-1.051826 -2.8563638 -0.96776366
-1.1023293 -2.8970129 -0.88502431
-1.1697369 -2.951268 -0.81160498
-1.1973271 -2.973475 -0.71436143
-1.2900894 -3.0481379 -0.64919281
-1.420043 -3.1527352 -0.59791815
-2.0354757 -3.6480865 -0.75039971
-2.0350261 -3.6477249 -0.6162684
-2.034708 -3.647469 -0.48513424
-2.0053878 -3.6238694 -0.21827531
-2.0431004 -3.6542239 -0.10317957
-0.85177779 -2.6814382 -1.1658537
-0.95726347 -2.7658274 -1.1278608
-1.0253694 -2.8203125 -1.0600412
-1.0800345 -2.8640447 -0.98122907
-1.1308985 -2.9047363 -0.89785933
-1.1758664 -2.9407108 -0.81079161
-1.1963022 -2.9570596 -0.70973635
-1.2848394 -3.0278897 -0.64264548
-1.4076495 -3.1261387 -0.58834147
-2.0774436 -3.6619775 -0.62937498
-2.0668445 -3.6534982 -0.49340332
-1.9825261 -3.5860431 -0.33514166
-2.0316515 -3.6253438 -0.22334754
-2.0802355 -3.664211 -0.11066437
-0.90202403 -2.7067206 -1.1984997
-0.95239687 -2.7467601 -1.1190436
-1.0232816 -2.8031042 -1.0534687
-1.1101456 -2.8721495 -0.99559236
-1.1330912 -2.890388 -0.8944366
-1.1838326 -2.9307208 -0.81079161
-1.2144327 -2.9550436 -0.71513224
-1.303288 -3.0256717 -0.64773786
-1.380888 -3.0873535 -0.57192457
-1.4337547 -3.1293752 -0.48214161
-2.1220465 -3.676475 -0.64307714
-2.0981154 -3.6574531 -0.50112104
-2.0288663 -3.6024094 -0.34729767
-2.0707107 -3.6356699 -0.23210883
-2.107316 -3.6647663 -0.11523843
-0.89265776 -2.6853027 -1.1862574
-0.95797896 -2.7369089 -1.1180639
-1.1076505 -2.8551548 -0.98930848
-1.1376302 -2.87884 -0.89272535
-1.1927612 -2.9223952 -0.81160498
-1.2176554 -2.9420626 -0.7128197
-1.3081405 -3.0135491 -0.64628279
-1.3947456 -3.0819702 -0.57466066
-1.4700863 -3.1414919 -0.49430609
-2.1362443 -3.6677806 -0.64486444
-2.1288829 -3.6619649 -0.50883901
-2.0869327 -3.6288226 -0.36350584
-2.1001453 -3.639261 -0.23810339
-2.1400104 -3.6707559 -0.1214757
-0.89074612 -2.6682651 -1.179116
-0.94239211 -2.7087896 -1.1014094
-1.1383479 -2.8625491 -1.1210725
-1.1129625 -2.8426301 -0.98751295
-1.1671646 -2.8851607 -0.90556014
-1.2039826 -2.9140503 -0.81323206
-1.2173555 -2.9245436 -0.70819461
-1.3050632 -2.9933646 -0.64046299
-1.3888342 -3.0590968 -0.56782031
-1.4970453 -3.144006 -0.50198889
-2.1725912 -3.674083 -0.65499222
-2.1502638 -3.656563 -0.51269794
-2.1387143 -3.6475008 -0.37718129
-2.1307673 -3.6412652 -0.24409795
-2.175458 -3.6763325 -0.12812889
-0.88700438 -2.6507108 -1.1709545
-0.94275498 -2.6941741 -1.0965109
-1.1460688 -2.8526773 -1.1210725
-1.0980692 -2.8152571 -0.9731499
-1.1792336 -2.8785326 -0.90812719
-1.2075422 -2.9006021 -0.81079161
-1.2209044 -2.9110193 -0.70588195
-1.2970324 -2.9703689 -0.63246083
-1.398654 -3.049593 -0.56850445
-1.4981771 -3.1271813 -0.49878764
-2.2189937 -3.6891305 -0.66929007
-2.2105088 -3.6825156 -0.53088999
-2.1763625 -3.6558952 -0.38629842
-2.1532083 -3.6378441 -0.24778688
-2.1903591 -3.6668069 -0.12937641
-0.86375451 -2.6189549 -1.1485105
-1.0129509 -2.7345586 -1.1415761
-0.98303294 -2.7113769 -1.0065217
-1.1476045 -2.8388937 -1.0000811
-1.1722844 -2.8580165 -0.89957058
-1.2120593 -2.8888359 -0.80916476
-1.226882 -2.900321 -0.70511127
-1.3061173 -2.9617157 -0.63318825
-1.4020441 -3.0360439 -0.56645226
-1.4882808 -3.1028636 -0.49110484
-2.2354274 -3.6817837 -0.5364027
-2.2211814 -3.6707451 -0.39794803
-2.2089477 -3.6612661 -0.2616204
-0.88434267 -2.6204407 -1.1587124
-1.103169 -2.7888987 -1.2003567
-0.88113499 -2.6179714 -0.93328393
-1.0957713 -2.7832038 -0.96237743
-1.1513424 -2.825984 -0.88245738
-1.2184145 -2.8776178 -0.80835116
-1.2288723 -2.8856683 -0.70202792
-1.3141489 -2.9513166 -0.63318825
-1.4162655 -3.0299284 -0.56918848
-1.477237 -3.0768659 -0.48278189
-2.2268367 -3.6539268 -0.39642847
-2.2083783 -3.6397171 -0.25839257
-0.86670828 -2.5925574 -1.1403489
-1.106503 -2.7759607 -1.1974177
-0.86704874 -2.5928178 -0.91919994
-1.1742227 -2.827755 -1.0072625
-1.1560762 -2.8138759 -0.88074613
-1.2479513 -2.8841453 -0.8205533
-1.2278693 -2.8687859 -0.69740272
-1.3191876 -2.9386294 -0.63173318
-1.418539 -3.0146167 -0.56645226
-1.4991736 -3.0762887 -0.48854387
-0.85166788 -2.5668874 -1.1240258
-1.0084419 -2.6860147 -1.1229622
-1.2031796 -2.8339894 -1.0207281
-1.2068245 -2.8367591 -0.90641594
-1.2455566 -2.8661902 -0.81485903
-1.2400181 -2.8619816 -0.69971526
-1.3271472 -2.9281883 -0.63173318
-1.423744 -3.0015888 -0.56508422
-1.5060563 -3.0641353 -0.48790371
-0.90201259 -2.5915918 -1.156672
-0.9108541 -2.598269 -1.0494864
-0.92689371 -2.6103821 -0.95018506
-1.2146654 -2.8277063 -1.0234213
-1.2284653 -2.8381281 -0.91497254
-1.2484851 -2.8532469 -0.81241858
-1.2473083 -2.8523581 -0.69971526
-1.3286865 -2.9138148 -0.6288234
-1.4329472 -2.992552 -0.56576812
-1.5048726 -3.0468702 -0.48406231
-1.6961534 -3.1913249 -0.4452883
-0.86760283 -2.5514932 -1.1260664
-1.0181653 -2.6644566 -1.1200233
-0.87873435 -2.559845 -0.91356623
-1.2079806 -2.8068705 -1.0144441
-1.2361088 -2.8279743 -0.91497254
-1.2386379 -2.8298719 -0.80265689
-1.2490914 -2.8377149 -0.69663203
-1.3425281 -2.9078183 -0.63173318
-1.4395714 -2.9806275 -0.56508422
-1.5040772 -3.0290246 -0.48022091
-1.7003231 -3.1762631 -0.44350111
-0.93089724 -2.5846233 -1.1678939
-1.0476329 -2.6716354 -1.1356981
-0.81188178 -2.4959118 -0.86474121
-1.224124 -2.8031876 -1.0198302
-1.2451704 -2.8188751 -0.91582823
-1.3693094 -2.9114053 -0.87098873
-1.2700512 -2.8374207 -0.70356941
-1.3324664 -2.8839436 -0.6230036
-1.4325941 -2.9585764 -0.55824375
-1.5335884 -3.0338552 -0.48918426
-1.7074964 -3.1634824 -0.44290543
-0.89866185 -2.5472472 -1.1393287
-1.1790555 -2.7549548 -1.2228894
-1.2679036 -2.820771 -1.1623862
-1.2240596 -2.7882926 -1.0153418
-1.25088 -2.8081605 -0.91497254
-1.3840861 -2.9068358 -0.87505603
-1.2817168 -2.8310034 -0.70588195
